X,Y,Z
80.41522288301447,867.0355948366798,12.427669068894287
80.41522288301447,867.5121725512305,12.627816812831389
80.41522288301447,867.9887502657806,12.765488606012372
80.41522288301447,868.4653279803313,12.946473748339816
80.41522288301447,868.9419056948815,13.141513736463809
80.41522288301447,869.4184834094319,13.336311963397199
80.41522288301447,869.8950611239819,13.511338247060378
80.41522288301447,870.3716388385326,13.669739129404517
80.41522288301447,870.8482165530827,13.797031222856969
80.41522288301447,871.3247942676331,13.934832594495184
80.41522288301447,871.8013719821835,14.025530111689035
80.41522288301447,872.2779496967335,14.123692257567887
80.41522288301447,872.754527411284,14.253976702060108
80.41522288301447,873.2311051258342,14.309563533391026
80.41522288301447,873.7076828403849,14.424145055326795
80.41522288301447,874.1842605549348,14.465723626468293
80.41522288301447,874.6608382694856,14.575873571465248
80.41522288301447,875.1374159840358,14.65039123190975
80.41522288301447,875.6139936985861,14.73209602995196
80.41522288301447,876.0905714131366,14.7654781770102
80.41522288301447,876.5671491276867,14.782072250422996
80.41522288301447,877.043726842237,14.827174609072861
80.41522288301447,877.5203045567873,14.856574053133448
80.41522288301447,877.996882271338,14.816086544471768
80.41522288301447,878.4734599858881,14.86592956742101
80.41522288301447,878.9500377004384,14.87917982713745
80.41522288301447,879.4266154149886,14.893375055137083
80.41522288301447,879.9031931295391,14.799329280076915
80.41522288301447,880.3797708440892,14.826329708792885
80.41522288301447,880.8563485586398,14.819165674052048
80.41522288301447,881.3329262731897,14.760008769261544
80.41522288301447,881.8095039877405,14.745511039880197
80.41522288301447,882.2860817022906,14.695675759180347
80.41522288301447,882.7626594168413,14.651545131317647
80.41522288301447,883.7158148459418,14.55435239952959
80.41522288301447,884.1923925604917,14.518657535517228
80.41522288301447,884.6689702750425,14.402705004279905
80.41522288301447,885.1455479895927,14.331674551793162
80.41522288301447,885.6221257041432,14.22316001732596
80.41522288301447,886.0987034186936,14.145739725833801
80.41522288301447,886.5752811332438,14.07181507190816
80.41522288301447,887.0518588477939,13.953026931852502
80.41522288301447,887.5284365623443,13.852684090119968
80.41522288301447,888.0050142768947,13.723429044292027
80.41522288301447,888.481591991445,13.635372026514037
80.41522288301447,888.9581697059955,13.524965441970819
80.41522288301447,889.4347474205458,13.380683034420965
80.41522288301447,889.9113251350961,13.28826652698066
80.41522288301447,890.3879028496465,13.174710880949531
80.41522288301447,890.8644805641969,13.083075582658351
80.41522288301447,891.3410582787473,12.970439046758267
80.41522288301447,891.8176359932975,12.846985833675129
80.41522288301447,892.2942137078478,12.713548826365741
80.41522288301447,892.7707914223985,12.551693554526457
80.41522288301447,893.2473691369485,12.42605840613188
80.41522288301447,893.7239468514985,12.272883526808263
80.41522288301447,894.2005245660495,12.152304296832506
80.41522288301447,894.6771022805992,11.95347582435794
80.41522288301447,895.1536799951502,11.81409626300651
80.41522288301447,895.6302577097,11.65952148270472
80.41522288301447,896.1068354242506,11.51792370978712
80.41522288301447,896.5834131388006,11.379618643163669
80.41522288301447,897.0599908533513,11.17369163090894
80.41522288301447,897.5365685679013,11.023806478975924
80.41522288301447,898.0131462824519,10.854545414078736
80.41522288301447,898.4897239970021,10.655551713957385
80.41522288301447,898.9663017115525,10.469881699035
80.41522288301447,899.4428794261029,10.272619365532574
80.41522288301447,899.9194571406534,10.0916778121965
80.41522288301447,900.3960348552033,9.900330057027757
80.41522288301447,900.8726125697538,9.725541358599342
80.41522288301447,901.3491902843041,9.564720561634585
80.41522288301447,901.8257679988545,9.258888931478104
80.41522288301447,902.3023457134047,8.985725172330742
80.41522288301447,902.7789234279552,8.826772172827823
80.41522288301447,903.2555011425058,8.616400240750083
80.41522288301447,903.7320788570559,8.38200322726948
80.41522288301447,904.2086565716064,8.181532045424055
80.41522288301447,904.6852342861564,7.998373518044562
80.41522288301447,905.1618120007068,7.735460884390377
80.41522288301447,905.6383897152573,7.44063946226557
80.41522288301447,906.1149674298077,7.25698070982365
80.41522288301447,906.591545144358,7.0759273425079545
80.41522288301447,907.0681228589082,6.848026470517315
80.41522288301447,907.5447005734586,6.615717615953249
80.41522288301447,908.0212782880088,6.370162463112135
80.41522288301447,908.4978560025593,6.130431083206861
80.41522288301447,908.9744337171094,5.934279738189541
80.41522288301447,909.4510114316599,5.728705742491554
80.41522288301447,909.9275891462104,5.530178086788084
80.41522288301447,910.4041668607607,5.302013848386788
80.41522288301447,910.8807445753107,5.100359149785004
80.41522288301447,911.3573222898613,4.855027452809051
80.41522288301447,911.8339000044112,4.672006923092399
80.41522288301447,912.3104777189618,4.466990205302389
80.41522288301447,912.7870554335124,4.295974451955184
80.41522288301447,913.2636331480625,4.149570881530623
80.41522288301447,913.7402108626127,3.9910069662189755
80.61937881017391,853.2148411147202,3.9731575304680606
80.61937881017391,853.6914188292708,4.249098715281682
80.61937881017391,854.167996543821,4.555495833638872
80.61937881017391,854.6445742583713,4.888417460856102
80.61937881017391,855.1211519729217,5.203242254492535
80.61937881017391,855.5977296874721,5.534956936806812
80.61937881017391,856.0743074020223,5.87495772633431
80.61937881017391,856.5508851165729,6.19560507991707
80.61937881017391,857.0274628311228,6.543445144966158
80.61937881017391,857.5040405456732,6.86802144279739
80.61937881017391,857.9806182602235,7.248493401598297
80.61937881017391,858.457195974774,7.564220324945809
80.61937881017391,858.9337736893243,7.931999331807303
80.61937881017391,859.4103514038746,8.286514333543694
80.61937881017391,859.886929118425,8.577903054872191
80.61937881017391,860.3635068329753,8.883418608368107
80.61937881017391,860.8400845475257,9.198187558442434
80.61937881017391,861.316662262076,9.475384090888406
80.61937881017391,861.7932399766264,9.77826278974902
80.61937881017391,862.2698176911767,10.03480063440778
80.61937881017391,862.746395405727,10.324559791600175
80.61937881017391,863.2229731202774,10.607441208489929
80.61937881017391,863.6995508348275,10.85374095073922
80.61937881017391,864.1761285493777,11.140697377398938
80.61937881017391,864.6527062639284,11.382256040913838
80.61937881017391,865.1292839784786,11.614540800324646
80.61937881017391,865.6058616930289,11.863982418056189
80.61937881017391,866.0824394075793,12.092211905816814
80.61937881017391,866.5590171221296,12.370102478098264
80.61937881017391,867.0355948366798,12.532669447356604
80.61937881017391,867.5121725512305,12.748951971119192
80.61937881017391,867.9887502657806,12.92385057852918
80.61937881017391,868.4653279803313,13.077822066405254
80.61937881017391,868.9419056948815,13.270035541707298
80.61937881017391,869.4184834094319,13.484109318631733
80.61937881017391,869.8950611239819,13.635956926093176
80.61937881017391,870.3716388385326,13.794765334466215
80.61937881017391,870.8482165530827,13.914950267946015
80.61937881017391,871.3247942676331,14.050341540033532
80.61937881017391,871.8013719821835,14.143628770064613
80.61937881017391,872.2779496967335,14.232543582099213
80.61937881017391,872.754527411284,14.364944597097978
80.61937881017391,873.2311051258342,14.47053892426836
80.61937881017391,873.7076828403849,14.539855413740623
80.61937881017391,874.1842605549348,14.639598324278023
80.61937881017391,874.6608382694856,14.722594362955402
80.61937881017391,875.1374159840358,14.810842580379376
80.61937881017391,875.6139936985861,14.929265322740735
80.61937881017391,876.0905714131366,15.006529876519657
80.61937881017391,876.5671491276867,15.011845055523924
80.61937881017391,877.043726842237,15.05127562517801
80.61937881017391,877.5203045567873,15.046659137934762
80.61937881017391,877.996882271338,14.962826143031407
80.61937881017391,878.4734599858881,15.01023015584636
80.61937881017391,878.9500377004384,14.999861955401046
80.61937881017391,879.4266154149886,15.030988618953435
80.61937881017391,879.9031931295391,14.981862382944353
80.61937881017391,880.3797708440892,14.991097442427934
80.61937881017391,880.8563485586398,14.952143370883432
80.61937881017391,881.3329262731897,14.906809845754887
80.61937881017391,881.8095039877405,14.867795289699819
80.61937881017391,882.2860817022906,14.801279917469746
80.61937881017391,882.7626594168413,14.774351247442883
80.61937881017391,883.2392371313912,14.707952598374305
80.61937881017391,883.7158148459418,14.713163358055938
80.61937881017391,884.1923925604917,14.617460737273749
80.61937881017391,884.6689702750425,14.544825023752827
80.61937881017391,885.1455479895927,14.483309637762305
80.61937881017391,885.6221257041432,14.374247382455163
80.61937881017391,886.0987034186936,14.291489125343448
80.61937881017391,886.5752811332438,14.200204891411325
80.61937881017391,887.0518588477939,14.09764935075145
80.61937881017391,887.5284365623443,14.015850693432402
80.61937881017391,888.0050142768947,13.897999089649632
80.61937881017391,888.481591991445,13.78018539135325
80.61937881017391,888.9581697059955,13.690723967406866
80.61937881017391,889.4347474205458,13.559944414925706
80.61937881017391,889.9113251350961,13.452219481717897
80.61937881017391,890.3879028496465,13.335749171558206
80.61937881017391,890.8644805641969,13.219174177390084
80.61937881017391,891.3410582787473,13.131380903516652
80.61937881017391,891.8176359932975,13.001177852929809
80.61937881017391,892.2942137078478,12.886904492902756
80.61937881017391,892.7707914223985,12.72048540272333
80.61937881017391,893.2473691369485,12.569878609649567
80.61937881017391,893.7239468514985,12.3942506158006
80.61937881017391,894.2005245660495,12.331237943456994
80.61937881017391,894.6771022805992,12.146384321238509
80.61937881017391,895.1536799951502,12.005531880443971
80.61937881017391,895.6302577097,11.82395509952356
80.61937881017391,896.1068354242506,11.635349589541118
80.61937881017391,896.5834131388006,11.496136785070568
80.61937881017391,897.0599908533513,11.354817297760723
80.61937881017391,897.5365685679013,11.183584965381437
80.61937881017391,898.0131462824519,11.03286142376932
80.61937881017391,898.4897239970021,10.804038838396123
80.61937881017391,898.9663017115525,10.611813402337193
80.61937881017391,899.4428794261029,10.418418831588788
80.61937881017391,899.9194571406534,10.24284049644491
80.61937881017391,900.3960348552033,10.038269574693512
80.61937881017391,900.8726125697538,9.856581360950974
80.61937881017391,901.3491902843041,9.688765693518347
80.61937881017391,901.8257679988545,9.4279314493403
80.61937881017391,902.3023457134047,9.18128620029921
80.61937881017391,902.7789234279552,8.993009158112526
80.61937881017391,903.2555011425058,8.791515135070131
80.61937881017391,903.7320788570559,8.526736403816606
80.61937881017391,904.2086565716064,8.301285029882383
80.61937881017391,904.6852342861564,8.133651070781383
80.61937881017391,905.1618120007068,7.891385621728798
80.61937881017391,905.6383897152573,7.675726502856272
80.61937881017391,906.1149674298077,7.4200268490126104
80.61937881017391,906.591545144358,7.194252061850685
80.61937881017391,907.0681228589082,6.942049725596266
80.61937881017391,907.5447005734586,6.740898573212444
80.61937881017391,908.0212782880088,6.538247424382063
80.61937881017391,908.4978560025593,6.281229553394639
80.61937881017391,908.9744337171094,6.074537057422587
80.61937881017391,909.4510114316599,5.857166860862785
80.61937881017391,909.9275891462104,5.64915530625058
80.61937881017391,910.4041668607607,5.406390005462951
80.61937881017391,910.8807445753107,5.204286062357005
80.61937881017391,911.3573222898613,4.9537678780048315
80.61937881017391,911.8339000044112,4.803138522287608
80.61937881017391,912.3104777189618,4.572390583753683
80.61937881017391,912.7870554335124,4.392008449877579
80.61937881017391,913.2636331480625,4.2236342425018485
80.61937881017391,913.7402108626127,4.063519326788206
80.61937881017391,914.2167885771635,3.921436133311237
80.82353473733333,853.2148411147202,4.005141213541358
80.82353473733333,853.6914188292708,4.300103911953381
80.82353473733333,854.167996543821,4.601909704600834
80.82353473733333,854.6445742583713,4.9492385366681235
80.82353473733333,855.1211519729217,5.258428348070569
80.82353473733333,855.5977296874721,5.597588946283162
80.82353473733333,856.0743074020223,5.932147460865911
80.82353473733333,856.5508851165729,6.272594733728524
80.82353473733333,857.0274628311228,6.617067008730648
80.82353473733333,857.5040405456732,6.939836966568973
80.82353473733333,857.9806182602235,7.30649504261586
80.82353473733333,858.457195974774,7.6627900538388
80.82353473733333,858.9337736893243,8.005610881764378
80.82353473733333,859.4103514038746,8.335814550940528
80.82353473733333,859.886929118425,8.639804678160244
80.82353473733333,860.3635068329753,8.986561930670641
80.82353473733333,860.8400845475257,9.269689412449464
80.82353473733333,861.316662262076,9.572601932674953
80.82353473733333,861.7932399766264,9.85342286489756
80.82353473733333,862.2698176911767,10.110545068379468
80.82353473733333,862.746395405727,10.41513707656292
80.82353473733333,863.2229731202774,10.693296168106274
80.82353473733333,863.6995508348275,10.96202404062846
80.82353473733333,864.1761285493777,11.2426118049895
80.82353473733333,864.6527062639284,11.487892918079629
80.82353473733333,865.1292839784786,11.73177374766111
80.82353473733333,865.6058616930289,11.962404792552423
80.82353473733333,866.0824394075793,12.192735796876104
80.82353473733333,866.5590171221296,12.484436656126912
80.82353473733333,867.0355948366798,12.64326384623268
80.82353473733333,867.5121725512305,12.862826313670318
80.82353473733333,867.9887502657806,13.031158823472717
80.82353473733333,868.4653279803313,13.20491596556806
80.82353473733333,869.4184834094319,13.610095325010665
80.82353473733333,869.8950611239819,13.749101589749593
80.82353473733333,870.3716388385326,13.907550205161025
80.82353473733333,870.8482165530827,14.041489511796298
80.82353473733333,871.3247942676331,14.1643051888981
80.82353473733333,871.8013719821835,14.258325609109177
80.82353473733333,872.2779496967335,14.37013048260454
80.82353473733333,872.754527411284,14.491469781465435
80.82353473733333,873.2311051258342,14.601279312503234
80.82353473733333,873.7076828403849,14.665450930235064
80.82353473733333,874.1842605549348,14.77044983115395
80.82353473733333,874.6608382694856,14.853301878968018
80.82353473733333,875.1374159840358,14.9420213944837
80.82353473733333,875.6139936985861,15.04492613654316
80.82353473733333,876.0905714131366,15.141216596115838
80.82353473733333,876.5671491276867,15.198485900827752
80.82353473733333,877.043726842237,15.218471431867785
80.82353473733333,877.5203045567873,15.223963280156047
80.82353473733333,877.996882271338,15.12800943759861
80.82353473733333,878.4734599858881,15.198904631746618
80.82353473733333,878.9500377004384,15.143440808692098
80.82353473733333,879.4266154149886,15.192606461040834
80.82353473733333,879.9031931295391,15.153393127169949
80.82353473733333,880.3797708440892,15.165469923273777
80.82353473733333,880.8563485586398,15.123339532112864
80.82353473733333,881.3329262731897,15.047627811219764
80.82353473733333,881.8095039877405,15.023217981987417
80.82353473733333,882.2860817022906,14.964011708255498
80.82353473733333,882.7626594168413,14.931381234408539
80.82353473733333,883.2392371313912,14.84099158893785
80.82353473733333,883.7158148459418,14.86466043046875
80.82353473733333,884.1923925604917,14.742798045199711
80.82353473733333,884.6689702750425,14.679768389273965
80.82353473733333,885.1455479895927,14.591825472356588
80.82353473733333,885.6221257041432,14.504267433021493
80.82353473733333,886.0987034186936,14.443192826935356
80.82353473733333,886.5752811332438,14.334133579810278
80.82353473733333,887.0518588477939,14.208297024188063
80.82353473733333,887.5284365623443,14.135605169444034
80.82353473733333,888.0050142768947,14.031079131361661
80.82353473733333,888.481591991445,13.959610280458937
80.82353473733333,888.9581697059955,13.830766158080419
80.82353473733333,889.4347474205458,13.731599734158701
80.82353473733333,889.9113251350961,13.615099427429003
80.82353473733333,890.3879028496465,13.563529866750388
80.82353473733333,890.8644805641969,13.411614711839944
80.82353473733333,891.3410582787473,13.28185276344306
80.82353473733333,891.8176359932975,13.158357160916374
80.82353473733333,892.2942137078478,13.03415007832796
80.82353473733333,892.7707914223985,12.857426564567097
80.82353473733333,893.2473691369485,12.725763003507346
80.82353473733333,893.7239468514985,12.589269389745745
80.82353473733333,894.2005245660495,12.433950185624507
80.82353473733333,894.6771022805992,12.292659089376127
80.82353473733333,895.1536799951502,12.149084959976362
80.82353473733333,895.6302577097,12.013198480005476
80.82353473733333,896.1068354242506,11.829462750312011
80.82353473733333,896.5834131388006,11.660583852682366
80.82353473733333,897.0599908533513,11.480537197528628
80.82353473733333,897.5365685679013,11.336116994108247
80.82353473733333,898.0131462824519,11.214771926600815
80.82353473733333,898.4897239970021,10.99741522319934
80.82353473733333,898.9663017115525,10.761280237595411
80.82353473733333,899.4428794261029,10.57167855603142
80.82353473733333,899.9194571406534,10.350989328296164
80.82353473733333,900.3960348552033,10.159204027493917
80.82353473733333,900.8726125697538,9.99016898408851
80.82353473733333,901.3491902843041,9.81375529059762
80.82353473733333,901.8257679988545,9.552537354521617
80.82353473733333,902.3023457134047,9.359931757697376
80.82353473733333,902.7789234279552,9.15662016861166
80.82353473733333,903.2555011425058,8.980765092315647
80.82353473733333,903.7320788570559,8.679492955522909
80.82353473733333,904.2086565716064,8.436176338631503
80.82353473733333,904.6852342861564,8.247874846127207
80.82353473733333,905.1618120007068,8.005886656613006
80.82353473733333,905.6383897152573,7.828971105537385
80.82353473733333,906.1149674298077,7.628832315963024
80.82353473733333,906.591545144358,7.377431361766616
80.82353473733333,907.0681228589082,7.063031618945535
80.82353473733333,907.5447005734586,6.843919285172685
80.82353473733333,908.0212782880088,6.644187435955151
80.82353473733333,908.4978560025593,6.439960717219538
80.82353473733333,908.9744337171094,6.1973560634423945
80.82353473733333,909.4510114316599,5.976729835918683
80.82353473733333,909.9275891462104,5.768942752784918
80.82353473733333,910.4041668607607,5.54128456501314
80.82353473733333,910.8807445753107,5.3068003842797
80.82353473733333,911.3573222898613,5.063818516401254
80.82353473733333,911.8339000044112,4.895737744583252
80.82353473733333,912.3104777189618,4.660476491613445
80.82353473733333,912.7870554335124,4.48464284866615
80.82353473733333,913.2636331480625,4.305989747625394
80.82353473733333,913.7402108626127,4.099975829231298
80.82353473733333,914.2167885771635,3.946030203553271
81.02769066449274,853.2148411147202,4.067602700712112
81.02769066449274,853.6914188292708,4.355916915013155
81.02769066449274,854.167996543821,4.660105330020994
81.02769066449274,854.6445742583713,4.994473733886366
81.02769066449274,855.1211519729217,5.317182979958045
81.02769066449274,855.5977296874721,5.668189823496485
81.02769066449274,856.0743074020223,6.01037679224245
81.02769066449274,856.5508851165729,6.37199008921373
81.02769066449274,857.0274628311228,6.714648196689919
81.02769066449274,857.5040405456732,7.033297535037422
81.02769066449274,857.9806182602235,7.376496015506335
81.02769066449274,858.457195974774,7.729469519159357
81.02769066449274,858.9337736893243,8.068839282588073
81.02769066449274,859.4103514038746,8.373260203949949
81.02769066449274,859.886929118425,8.6785394008003
81.02769066449274,860.3635068329753,9.018606738255013
81.02769066449274,860.8400845475257,9.312394301238113
81.02769066449274,861.316662262076,9.665531254716859
81.02769066449274,861.7932399766264,9.94041477154205
81.02769066449274,862.2698176911767,10.206749537605926
81.02769066449274,862.746395405727,10.502276119664335
81.02769066449274,863.2229731202774,10.775730075925152
81.02769066449274,863.6995508348275,11.054412433345528
81.02769066449274,864.1761285493777,11.334675097300922
81.02769066449274,864.6527062639284,11.601699641383231
81.02769066449274,865.1292839784786,11.863725907433066
81.02769066449274,865.6058616930289,12.085608323907385
81.02769066449274,866.0824394075793,12.362046906147134
81.02769066449274,866.5590171221296,12.611611766957674
81.02769066449274,867.0355948366798,12.771747800076673
81.02769066449274,867.5121725512305,12.985567134216614
81.02769066449274,867.9887502657806,13.188239682936414
81.02769066449274,868.4653279803313,13.374559794733251
81.02769066449274,868.9419056948815,13.600752243961324
81.02769066449274,869.4184834094319,13.734940816024698
81.02769066449274,869.8950611239819,13.875330401015741
81.02769066449274,870.3716388385326,14.01148859988377
81.02769066449274,870.8482165530827,14.141103767072767
81.02769066449274,871.3247942676331,14.26964185577766
81.02769066449274,871.8013719821835,14.380781148657775
81.02769066449274,872.2779496967335,14.484013400483084
81.02769066449274,872.754527411284,14.59173970000274
81.02769066449274,873.2311051258342,14.715707681065473
81.02769066449274,873.7076828403849,14.781570393354677
81.02769066449274,874.1842605549348,14.889442165046761
81.02769066449274,874.6608382694856,14.956916272975088
81.02769066449274,875.1374159840358,15.06005682794111
81.02769066449274,875.6139936985861,15.139576188758127
81.02769066449274,876.0905714131366,15.249328389037572
81.02769066449274,876.5671491276867,15.280560268621675
81.02769066449274,877.043726842237,15.290217504471185
81.02769066449274,877.5203045567873,15.303888913318948
81.02769066449274,877.996882271338,15.303725709137627
81.02769066449274,878.4734599858881,15.392024327629473
81.02769066449274,878.9500377004384,15.311946317648877
81.02769066449274,879.4266154149886,15.361605601494977
81.02769066449274,879.9031931295391,15.343374642096194
81.02769066449274,880.3797708440892,15.355168523103368
81.02769066449274,880.8563485586398,15.281220405575187
81.02769066449274,881.3329262731897,15.185303751097397
81.02769066449274,881.8095039877405,15.134566635475096
81.02769066449274,882.2860817022906,15.135885887205145
81.02769066449274,882.7626594168413,15.093144094659435
81.02769066449274,883.2392371313912,14.98323277095053
81.02769066449274,883.7158148459418,15.01002688872401
81.02769066449274,884.1923925604917,14.902253415479171
81.02769066449274,884.6689702750425,14.8221785049796
81.02769066449274,885.1455479895927,14.715349064626071
81.02769066449274,885.6221257041432,14.641554253578896
81.02769066449274,886.0987034186936,14.581429130519432
81.02769066449274,886.5752811332438,14.511036229828841
81.02769066449274,887.0518588477939,14.400056918847708
81.02769066449274,887.5284365623443,14.28465209426629
81.02769066449274,888.0050142768947,14.151604524441032
81.02769066449274,888.481591991445,14.083257285603791
81.02769066449274,888.9581697059955,13.984178022631683
81.02769066449274,889.4347474205458,13.89507610090728
81.02769066449274,889.9113251350961,13.748972820706408
81.02769066449274,890.3879028496465,13.660652780506258
81.02769066449274,890.8644805641969,13.563585821608148
81.02769066449274,891.3410582787473,13.452289157715864
81.02769066449274,891.8176359932975,13.302585896315922
81.02769066449274,892.2942137078478,13.18136552699963
81.02769066449274,892.7707914223985,13.059997862739595
81.02769066449274,893.2473691369485,12.910868936587853
81.02769066449274,893.7239468514985,12.778875775329007
81.02769066449274,894.2005245660495,12.622443236740526
81.02769066449274,894.6771022805992,12.41622919938684
81.02769066449274,895.1536799951502,12.285879328126097
81.02769066449274,895.6302577097,12.158743724192117
81.02769066449274,896.1068354242506,11.993939463768099
81.02769066449274,896.5834131388006,11.843504112524162
81.02769066449274,897.0599908533513,11.678760433204173
81.02769066449274,897.5365685679013,11.478580568936497
81.02769066449274,898.0131462824519,11.337946530433916
81.02769066449274,898.4897239970021,11.154630445410875
81.02769066449274,898.9663017115525,10.910425963472045
81.02769066449274,899.4428794261029,10.783370214920325
81.02769066449274,899.9194571406534,10.533073748534228
81.02769066449274,900.3960348552033,10.295343886947384
81.02769066449274,900.8726125697538,10.08623339941259
81.02769066449274,901.3491902843041,9.935883577911195
81.02769066449274,901.8257679988545,9.736603239968433
81.02769066449274,902.3023457134047,9.507191335868365
81.02769066449274,902.7789234279552,9.303216986869035
81.02769066449274,903.2555011425058,9.102601422106506
81.02769066449274,903.7320788570559,8.821676150569209
81.02769066449274,904.2086565716064,8.596236731562822
81.02769066449274,904.6852342861564,8.390013682231693
81.02769066449274,905.1618120007068,8.170809287931743
81.02769066449274,905.6383897152573,7.943377939614686
81.02769066449274,906.1149674298077,7.746522109420618
81.02769066449274,906.591545144358,7.543248331974892
81.02769066449274,907.0681228589082,7.239259946819217
81.02769066449274,907.5447005734586,6.990067819775294
81.02769066449274,908.0212782880088,6.762986528998686
81.02769066449274,908.4978560025593,6.54174312690885
81.02769066449274,908.9744337171094,6.285512578920599
81.02769066449274,909.4510114316599,6.097423442698073
81.02769066449274,909.9275891462104,5.872436551346666
81.02769066449274,910.4041668607607,5.652768351611537
81.02769066449274,910.8807445753107,5.459759377370338
81.02769066449274,911.3573222898613,5.201093178276143
81.02769066449274,911.8339000044112,4.987304919503168
81.02769066449274,912.3104777189618,4.7576824220104195
81.02769066449274,912.7870554335124,4.560951075657844
81.02769066449274,913.2636331480625,4.392671536419029
81.02769066449274,913.7402108626127,4.17051714218508
81.02769066449274,914.2167885771635,4.000766032256253
81.23184659165219,853.2148411147202,4.119925953916106
81.23184659165219,853.6914188292708,4.43022963864305
81.23184659165219,854.167996543821,4.731369369856352
81.23184659165219,854.6445742583713,5.053654635696984
81.23184659165219,855.1211519729217,5.389156997722688
81.23184659165219,855.5977296874721,5.76036363589661
81.23184659165219,856.0743074020223,6.07921129600276
81.23184659165219,856.5508851165729,6.434256836900112
81.23184659165219,857.0274628311228,6.777350532393732
81.23184659165219,857.5040405456732,7.097519955675765
81.23184659165219,857.9806182602235,7.443689518399961
81.23184659165219,858.457195974774,7.813874919296599
81.23184659165219,858.9337736893243,8.146289517703837
81.23184659165219,859.4103514038746,8.461932009770207
81.23184659165219,859.886929118425,8.741195861912223
81.23184659165219,860.3635068329753,9.077411773025597
81.23184659165219,860.8400845475257,9.385698627770585
81.23184659165219,861.316662262076,9.7459020193987
81.23184659165219,861.7932399766264,10.037643569175803
81.23184659165219,862.2698176911767,10.31008435775151
81.23184659165219,862.746395405727,10.60018881142774
81.23184659165219,863.2229731202774,10.884895110492115
81.23184659165219,863.6995508348275,11.157238598789611
81.23184659165219,864.1761285493777,11.432139285709628
81.23184659165219,864.6527062639284,11.712143606453363
81.23184659165219,865.1292839784786,11.960947769021859
81.23184659165219,865.6058616930289,12.213936759061886
81.23184659165219,866.0824394075793,12.480845970479846
81.23184659165219,866.5590171221296,12.726764074748871
81.23184659165219,867.0355948366798,12.88325206269199
81.23184659165219,867.5121725512305,13.1243937925405
81.23184659165219,867.9887502657806,13.367254036567772
81.23184659165219,868.4653279803313,13.556610562997205
81.23184659165219,868.9419056948815,13.72414666962033
81.23184659165219,869.4184834094319,13.870699066516384
81.23184659165219,869.8950611239819,13.998528184434374
81.23184659165219,870.3716388385326,14.11867915221765
81.23184659165219,870.8482165530827,14.271460467910236
81.23184659165219,871.3247942676331,14.363697810827354
81.23184659165219,871.8013719821835,14.485927761553178
81.23184659165219,872.2779496967335,14.588883365281736
81.23184659165219,872.754527411284,14.6970951238672
81.23184659165219,873.2311051258342,14.83416654212092
81.23184659165219,873.7076828403849,14.895641267490182
81.23184659165219,874.1842605549348,15.015384009975822
81.23184659165219,874.6608382694856,15.083966280817405
81.23184659165219,875.1374159840358,15.162560718362553
81.23184659165219,875.6139936985861,15.191922656161308
81.23184659165219,876.0905714131366,15.275174155055332
81.23184659165219,876.5671491276867,15.34325652644726
81.23184659165219,877.043726842237,15.357110844579154
81.23184659165219,877.5203045567873,15.389568431316558
81.23184659165219,877.996882271338,15.464459922526204
81.23184659165219,878.4734599858881,15.540147870919636
81.23184659165219,878.9500377004384,15.45412663560678
81.23184659165219,879.4266154149886,15.46915385808755
81.23184659165219,879.9031931295391,15.485085873360479
81.23184659165219,880.3797708440892,15.503511979292739
81.23184659165219,880.8563485586398,15.449148938543743
81.23184659165219,881.3329262731897,15.350077621022722
81.23184659165219,881.8095039877405,15.262364705996736
81.23184659165219,882.2860817022906,15.24340527680018
81.23184659165219,882.7626594168413,15.219414852322139
81.23184659165219,883.2392371313912,15.130255170995287
81.23184659165219,883.7158148459418,15.152465696634014
81.23184659165219,884.1923925604917,15.02170934624545
81.23184659165219,884.6689702750425,14.94805987996527
81.23184659165219,885.1455479895927,14.885720301732192
81.23184659165219,885.6221257041432,14.799343181116543
81.23184659165219,886.0987034186936,14.701996051132557
81.23184659165219,886.5752811332438,14.636168524136407
81.23184659165219,887.0518588477939,14.562977872799827
81.23184659165219,888.0050142768947,14.331412154730907
81.23184659165219,888.481591991445,14.235444363670176
81.23184659165219,888.9581697059955,14.107445211262398
81.23184659165219,889.4347474205458,14.04279058742423
81.23184659165219,889.9113251350961,13.908353761339706
81.23184659165219,890.3879028496465,13.830100589686749
81.23184659165219,890.8644805641969,13.688226165349034
81.23184659165219,891.3410582787473,13.58047855393292
81.23184659165219,891.8176359932975,13.460257655559372
81.23184659165219,892.2942137078478,13.345827586885797
81.23184659165219,892.7707914223985,13.18681190109813
81.23184659165219,893.2473691369485,13.040689360732198
81.23184659165219,893.7239468514985,12.960862802455805
81.23184659165219,894.2005245660495,12.809542779614894
81.23184659165219,894.6771022805992,12.603640847354239
81.23184659165219,895.1536799951502,12.459984724941462
81.23184659165219,895.6302577097,12.285008951580231
81.23184659165219,896.1068354242506,12.124005160663462
81.23184659165219,896.5834131388006,11.975726749811749
81.23184659165219,897.0599908533513,11.845530918635813
81.23184659165219,897.5365685679013,11.665942297550762
81.23184659165219,898.0131462824519,11.482579499176152
81.23184659165219,898.4897239970021,11.292048917884975
81.23184659165219,898.9663017115525,11.061681274214568
81.23184659165219,899.4428794261029,10.92745002944381
81.23184659165219,899.9194571406534,10.732875011239072
81.23184659165219,900.3960348552033,10.48054519814358
81.23184659165219,900.8726125697538,10.246257521365667
81.23184659165219,901.3491902843041,10.079861019155864
81.23184659165219,901.8257679988545,9.885586719220607
81.23184659165219,902.3023457134047,9.688961975710885
81.23184659165219,902.7789234279552,9.438931666542256
81.23184659165219,903.2555011425058,9.19953146922221
81.23184659165219,903.7320788570559,8.940959941704778
81.23184659165219,904.2086565716064,8.756926529895617
81.23184659165219,904.6852342861564,8.56132930221377
81.23184659165219,905.1618120007068,8.313620698060847
81.23184659165219,905.6383897152573,8.11026251519184
81.23184659165219,906.1149674298077,7.858464979208921
81.23184659165219,906.591545144358,7.639173641662591
81.23184659165219,907.0681228589082,7.387534082761001
81.23184659165219,907.5447005734586,7.177805872976302
81.23184659165219,908.0212782880088,6.937088226386319
81.23184659165219,908.4978560025593,6.673584122342804
81.23184659165219,908.9744337171094,6.367789093488269
81.23184659165219,909.4510114316599,6.188834240860276
81.23184659165219,909.9275891462104,5.989529484131342
81.23184659165219,910.4041668607607,5.753368149672932
81.23184659165219,910.8807445753107,5.578640580364608
81.23184659165219,911.3573222898613,5.32802209173112
81.23184659165219,911.8339000044112,5.113683715623788
81.23184659165219,912.3104777189618,4.851874341077007
81.23184659165219,912.7870554335124,4.665122904547896
81.23184659165219,913.2636331480625,4.463977563462554
81.23184659165219,913.7402108626127,4.245436763911004
81.23184659165219,914.2167885771635,4.07991362402594
81.23184659165219,914.6933662917132,3.9685761325815645
81.43600251881159,853.2148411147202,4.170140140030524
81.43600251881159,853.6914188292708,4.505446434848879
81.43600251881159,854.167996543821,4.8000785746937185
81.43600251881159,854.6445742583713,5.10525008251967
81.43600251881159,855.1211519729217,5.458941051696753
81.43600251881159,855.5977296874721,5.821308438145067
81.43600251881159,856.0743074020223,6.142963847827561
81.43600251881159,856.5508851165729,6.504818794048706
81.43600251881159,857.0274628311228,6.826939938700899
81.43600251881159,857.5040405456732,7.176370799158119
81.43600251881159,857.9806182602235,7.516964964099859
81.43600251881159,858.457195974774,7.882409131245369
81.43600251881159,858.9337736893243,8.225891414382499
81.43600251881159,859.4103514038746,8.532131364334235
81.43600251881159,859.886929118425,8.821287635988037
81.43600251881159,860.3635068329753,9.17284326140814
81.43600251881159,860.8400845475257,9.493317705805568
81.43600251881159,861.316662262076,9.840983819269841
81.43600251881159,861.7932399766264,10.116674992285043
81.43600251881159,862.2698176911767,10.431697670245125
81.43600251881159,862.746395405727,10.71669664804707
81.43600251881159,863.2229731202774,11.005294718876033
81.43600251881159,863.6995508348275,11.270630074943263
81.43600251881159,864.1761285493777,11.543935271145395
81.43600251881159,864.6527062639284,11.821098052193006
81.43600251881159,865.1292839784786,12.09455630834025
81.43600251881159,865.6058616930289,12.331233948870961
81.43600251881159,866.0824394075793,12.587581884811085
81.43600251881159,866.5590171221296,12.842939857431658
81.43600251881159,867.0355948366798,12.995206227695462
81.43600251881159,867.5121725512305,13.258588880044764
81.43600251881159,867.9887502657806,13.490807122735685
81.43600251881159,868.4653279803313,13.697300607838498
81.43600251881159,868.9419056948815,13.849618112034856
81.43600251881159,869.4184834094319,13.9795979981721
81.43600251881159,869.8950611239819,14.113575384925102
81.43600251881159,870.3716388385326,14.224383395159967
81.43600251881159,870.8482165530827,14.395815982418387
81.43600251881159,871.3247942676331,14.499517533496844
81.43600251881159,871.8013719821835,14.589092047284293
81.43600251881159,872.2779496967335,14.69194097680108
81.43600251881159,872.754527411284,14.802104429304517
81.43600251881159,873.2311051258342,14.94093591986678
81.43600251881159,873.7076828403849,15.01135065118264
81.43600251881159,874.1842605549348,15.117402289392626
81.43600251881159,874.6608382694856,15.19994220820084
81.43600251881159,875.1374159840358,15.257318690805858
81.43600251881159,875.6139936985861,15.283689725645697
81.43600251881159,876.0905714131366,15.328255018217552
81.43600251881159,876.5671491276867,15.422235708296206
81.43600251881159,877.043726842237,15.47029782446168
81.43600251881159,877.5203045567873,15.512821693752157
81.43600251881159,877.996882271338,15.63206786554381
81.43600251881159,878.4734599858881,15.692960171046728
81.43600251881159,878.9500377004384,15.63652665931587
81.43600251881159,879.4266154149886,15.592993195588727
81.43600251881159,879.9031931295391,15.585481519229603
81.43600251881159,880.3797708440892,15.598577715365657
81.43600251881159,880.8563485586398,15.553588103392606
81.43600251881159,881.3329262731897,15.50173454919553
81.43600251881159,881.8095039877405,15.441302092949137
81.43600251881159,882.2860817022906,15.387213726723669
81.43600251881159,882.7626594168413,15.364095384441134
81.43600251881159,883.2392371313912,15.271571704895672
81.43600251881159,883.7158148459418,15.29193988697893
81.43600251881159,884.1923925604917,15.179564975552378
81.43600251881159,884.6689702750425,15.093770760182975
81.43600251881159,885.1455479895927,15.027653529411493
81.43600251881159,885.6221257041432,14.937349057211827
81.43600251881159,886.0987034186936,14.855450003781044
81.43600251881159,886.5752811332438,14.771705388825893
81.43600251881159,887.0518588477939,14.698652266165602
81.43600251881159,887.5284365623443,14.618022625047164
81.43600251881159,888.0050142768947,14.473831934282362
81.43600251881159,888.481591991445,14.393875041744739
81.43600251881159,888.9581697059955,14.264197148303616
81.43600251881159,889.4347474205458,14.184400366805214
81.43600251881159,889.9113251350961,14.058162965506227
81.43600251881159,890.3879028496465,13.96375487228789
81.43600251881159,890.8644805641969,13.870934432679086
81.43600251881159,891.3410582787473,13.775538969985117
81.43600251881159,891.8176359932975,13.587183986753052
81.43600251881159,892.2942137078478,13.507697054226377
81.43600251881159,892.7707914223985,13.351326541818619
81.43600251881159,893.2473691369485,13.160345368702336
81.43600251881159,893.7239468514985,13.083424549965788
81.43600251881159,894.2005245660495,12.944524204438212
81.43600251881159,894.6771022805992,12.768940724190877
81.43600251881159,895.1536799951502,12.616076137139347
81.43600251881159,895.6302577097,12.461174387664974
81.43600251881159,896.1068354242506,12.27278350744454
81.43600251881159,896.5834131388006,12.10581604712636
81.43600251881159,897.0599908533513,11.944725562400867
81.43600251881159,897.5365685679013,11.823730419195432
81.43600251881159,898.0131462824519,11.657296544341525
81.43600251881159,898.4897239970021,11.468023244989924
81.43600251881159,898.9663017115525,11.227645303337082
81.43600251881159,899.4428794261029,11.05618180048187
81.43600251881159,899.9194571406534,10.862712329656988
81.43600251881159,900.3960348552033,10.616797136084413
81.43600251881159,900.8726125697538,10.428794467709531
81.43600251881159,901.3491902843041,10.256978224395537
81.43600251881159,901.8257679988545,10.031140607423847
81.43600251881159,902.3023457134047,9.800840435460213
81.43600251881159,902.7789234279552,9.558564498926275
81.43600251881159,903.2555011425058,9.356408772189997
81.43600251881159,903.7320788570559,9.119462668892304
81.43600251881159,904.2086565716064,8.918627140237273
81.43600251881159,904.6852342861564,8.687674767307248
81.43600251881159,905.1618120007068,8.473322724485827
81.43600251881159,905.6383897152573,8.2244966188003
81.43600251881159,906.1149674298077,7.967194588841099
81.43600251881159,906.591545144358,7.729201022029248
81.43600251881159,907.0681228589082,7.485342248707881
81.43600251881159,907.5447005734586,7.298133939750007
81.43600251881159,908.0212782880088,7.085883224599512
81.43600251881159,908.4978560025593,6.854243482530919
81.43600251881159,908.9744337171094,6.522720117389413
81.43600251881159,909.4510114316599,6.3002534996254305
81.43600251881159,909.9275891462104,6.078521536872655
81.43600251881159,910.4041668607607,5.87105092344622
81.43600251881159,910.8807445753107,5.694454456424031
81.43600251881159,911.3573222898613,5.411113534148435
81.43600251881159,911.8339000044112,5.199428720573016
81.43600251881159,912.3104777189618,4.957847121129544
81.43600251881159,912.7870554335124,4.791747278798911
81.43600251881159,913.2636331480625,4.570656222923217
81.43600251881159,913.7402108626127,4.333093794689608
81.43600251881159,914.2167885771635,4.151675101807766
81.43600251881159,914.6933662917132,4.0052324321216926
81.64015844597101,852.73826340017,3.9452395114052985
81.64015844597101,853.2148411147202,4.197472932533449
81.64015844597101,853.6914188292708,4.55031119221826
81.64015844597101,854.167996543821,4.856013355282738
81.64015844597101,854.6445742583713,5.15819295753563
81.64015844597101,855.1211519729217,5.53233502844858
81.64015844597101,855.5977296874721,5.890285181924641
81.64015844597101,856.0743074020223,6.212704585816917
81.64015844597101,856.5508851165729,6.5860743348622615
81.64015844597101,857.0274628311228,6.872355421175809
81.64015844597101,857.5040405456732,7.265318936631392
81.64015844597101,857.9806182602235,7.5887842030968224
81.64015844597101,858.457195974774,7.943404910063952
81.64015844597101,858.9337736893243,8.297224313528266
81.64015844597101,859.4103514038746,8.604625631287913
81.64015844597101,859.886929118425,8.913138766760065
81.64015844597101,860.3635068329753,9.26864111297265
81.64015844597101,860.8400845475257,9.612317198197447
81.64015844597101,861.316662262076,9.931507605314819
81.64015844597101,861.7932399766264,10.198591529267365
81.64015844597101,862.2698176911767,10.535811801503927
81.64015844597101,862.746395405727,10.813380747124889
81.64015844597101,863.2229731202774,11.08664783135768
81.64015844597101,863.6995508348275,11.351166347591922
81.64015844597101,864.1761285493777,11.654308807789638
81.64015844597101,864.6527062639284,11.921571460201845
81.64015844597101,865.1292839784786,12.214815255438928
81.64015844597101,865.6058616930289,12.494685149627015
81.64015844597101,866.0824394075793,12.729361455961282
81.64015844597101,866.5590171221296,12.94694333115809
81.64015844597101,867.0355948366798,13.15664672952288
81.64015844597101,867.5121725512305,13.43071859743277
81.64015844597101,867.9887502657806,13.629285472735628
81.64015844597101,868.4653279803313,13.797197917296621
81.64015844597101,868.9419056948815,13.96579868085002
81.64015844597101,869.4184834094319,14.090240346100455
81.64015844597101,869.8950611239819,14.240503679573095
81.64015844597101,870.3716388385326,14.33989228459003
81.64015844597101,870.8482165530827,14.476941864169609
81.64015844597101,871.3247942676331,14.594632397765094
81.64015844597101,871.8013719821835,14.692708856149512
81.64015844597101,872.2779496967335,14.741713572001139
81.64015844597101,872.754527411284,14.915872830731189
81.64015844597101,873.2311051258342,15.065452605410544
81.64015844597101,873.7076828403849,15.138181696311358
81.64015844597101,874.1842605549348,15.214143359930057
81.64015844597101,874.6608382694856,15.288229553833807
81.64015844597101,875.1374159840358,15.342586527042943
81.64015844597101,875.6139936985861,15.374666432815802
81.64015844597101,876.0905714131366,15.452126451047775
81.64015844597101,876.5671491276867,15.525534199716523
81.64015844597101,877.043726842237,15.579885866337143
81.64015844597101,877.5203045567873,15.620728354544614
81.64015844597101,877.996882271338,15.722453763221896
81.64015844597101,878.4734599858881,15.780221540397973
81.64015844597101,878.9500377004384,15.783112248198142
81.64015844597101,879.4266154149886,15.751061776277608
81.64015844597101,879.9031931295391,15.739036991914693
81.64015844597101,880.3797708440892,15.699858954157849
81.64015844597101,880.8563485586398,15.67976824927742
81.64015844597101,881.3329262731897,15.629943107800283
81.64015844597101,881.8095039877405,15.597433276949923
81.64015844597101,882.2860817022906,15.514077312609267
81.64015844597101,882.7626594168413,15.531072017418358
81.64015844597101,883.2392371313912,15.429835356539412
81.64015844597101,883.7158148459418,15.427432301250976
81.64015844597101,884.1923925604917,15.305186899268335
81.64015844597101,884.6689702750425,15.234618125154643
81.64015844597101,885.1455479895927,15.166660085611353
81.64015844597101,885.6221257041432,15.090766851890107
81.64015844597101,886.0987034186936,15.007297338359814
81.64015844597101,886.5752811332438,14.8851190476758
81.64015844597101,887.0518588477939,14.823008295532398
81.64015844597101,887.5284365623443,14.744436259785063
81.64015844597101,888.0050142768947,14.610778602236199
81.64015844597101,888.481591991445,14.530505034980557
81.64015844597101,888.9581697059955,14.411117395242906
81.64015844597101,889.4347474205458,14.33266781402569
81.64015844597101,889.9113251350961,14.211177460351099
81.64015844597101,890.3879028496465,14.069133518265584
81.64015844597101,890.8644805641969,13.993158752641175
81.64015844597101,891.3410582787473,13.94705605763702
81.64015844597101,891.8176359932975,13.777247897782955
81.64015844597101,892.2942137078478,13.681592067657922
81.64015844597101,892.7707914223985,13.495383063954206
81.64015844597101,893.2473691369485,13.337289386873305
81.64015844597101,893.7239468514985,13.22802156803856
81.64015844597101,894.2005245660495,13.051615097220983
81.64015844597101,894.6771022805992,12.90518715449696
81.64015844597101,895.1536799951502,12.775113108591695
81.64015844597101,895.6302577097,12.619748328392905
81.64015844597101,896.1068354242506,12.447104349813733
81.64015844597101,896.5834131388006,12.256808109092296
81.64015844597101,897.0599908533513,12.083439651781644
81.64015844597101,897.5365685679013,11.949911115283356
81.64015844597101,898.0131462824519,11.774855097778437
81.64015844597101,898.4897239970021,11.622340974343965
81.64015844597101,898.9663017115525,11.405962151953949
81.64015844597101,899.4428794261029,11.229951147063733
81.64015844597101,899.9194571406534,11.019744294978008
81.64015844597101,900.3960348552033,10.752318537756677
81.64015844597101,900.8726125697538,10.572236355622273
81.64015844597101,901.3491902843041,10.394666589778092
81.64015844597101,901.8257679988545,10.164834664511732
81.64015844597101,902.3023457134047,9.94318694232785
81.64015844597101,902.7789234279552,9.691686900892456
81.64015844597101,903.2555011425058,9.479709570379182
81.64015844597101,903.7320788570559,9.30783686059932
81.64015844597101,904.2086565716064,9.079120568757391
81.64015844597101,904.6852342861564,8.826342250117234
81.64015844597101,905.1618120007068,8.591816420586756
81.64015844597101,905.6383897152573,8.355091562988205
81.64015844597101,906.1149674298077,8.128580226683153
81.64015844597101,906.591545144358,7.886563952915465
81.64015844597101,907.0681228589082,7.634886651584605
81.64015844597101,907.5447005734586,7.424392568162673
81.64015844597101,908.0212782880088,7.1534119080625915
81.64015844597101,908.4978560025593,6.920534235754918
81.64015844597101,908.9744337171094,6.658902266351776
81.64015844597101,909.4510114316599,6.445489973242161
81.64015844597101,909.9275891462104,6.200891344644633
81.64015844597101,910.4041668607607,5.966293423632903
81.64015844597101,910.8807445753107,5.7719138890981725
81.64015844597101,911.3573222898613,5.522936151118251
81.64015844597101,911.8339000044112,5.295489072272376
81.64015844597101,912.3104777189618,5.0485092004073575
81.64015844597101,912.7870554335124,4.88412098757163
81.64015844597101,913.2636331480625,4.677408652367688
81.64015844597101,913.7402108626127,4.443483820039948
81.64015844597101,914.2167885771635,4.235295445587588
81.64015844597101,914.6933662917132,4.049323163761964
81.84431437313043,852.73826340017,3.9579732601614395
81.84431437313043,853.2148411147202,4.222795976781865
81.84431437313043,853.6914188292708,4.562198311719598
81.84431437313043,854.167996543821,4.889018249471832
81.84431437313043,854.6445742583713,5.218459620388715
81.84431437313043,855.1211519729217,5.579681823276275
81.84431437313043,855.5977296874721,5.91830548528418
81.84431437313043,856.0743074020223,6.254793908964246
