X,Y,Z
177.03744861017387,872.8444015956107,17.409027832524647
177.03744861017387,873.2500988742103,16.919061662038686
177.03744861017387,873.6557961528096,16.535316223247147
177.03744861017387,874.0614934314094,16.057557459511422
177.03744861017387,874.4671907100088,15.574596340045458
177.03744861017387,874.8728879886083,14.904719037561136
177.03744861017387,875.2785852672081,14.311264622899536
177.03744861017387,875.6842825458077,13.78238308178215
177.03744861017387,876.0899798244074,13.15191169420486
177.03744861017387,876.4956771030064,12.438575927711979
177.03744861017387,876.9013743816062,11.743527086083237
177.03744861017387,877.3070716602057,10.764397660307056
177.03744861017387,877.7127689388053,9.83636511557115
177.03744861017387,878.1184662174048,8.725476894580451
177.03744861017387,878.5241634960046,7.629796649060678
177.03744861017387,878.9298607746039,6.212607709620051
177.03744861017387,879.3355580532035,4.2504267597355625
177.03744861017387,879.741255331803,2.166812158640824
177.23973985169232,824.5664254422638,1.5166229464706218
177.23973985169232,824.9721227208636,3.4732031533769767
177.23973985169232,825.3778199994631,5.548686680313038
177.23973985169232,825.7835172780623,7.173439126633623
177.23973985169232,826.1892145566621,8.516128159653507
177.23973985169232,826.5949118352617,9.602877244618526
177.23973985169232,827.0006091138613,10.57451528160137
177.23973985169232,827.4063063924608,11.49427137180504
177.23973985169232,827.8120036710603,12.288985078298124
177.23973985169232,828.2177009496597,12.971223591928394
177.23973985169232,828.6233982282594,13.694057049983694
177.23973985169232,829.0290955068591,14.341988222839204
177.23973985169232,829.4347927854585,14.950613590230775
177.23973985169232,829.8404900640579,15.540857777563167
177.23973985169232,830.2461873426574,16.079868435271823
177.23973985169232,830.6518846212572,16.61664908707435
177.23973985169232,831.0575818998568,17.062111123101747
177.23973985169232,831.463279178456,17.559888214259033
177.23973985169232,831.8689764570559,18.051557541538457
177.23973985169232,832.2746737356553,18.473191917172677
177.23973985169232,832.6803710142551,18.89468704339598
177.23973985169232,833.0860682928545,19.268018510376578
177.23973985169232,833.4917655714542,19.628213080875447
177.23973985169232,833.8974628500538,20.03122206434987
177.23973985169232,834.3031601286531,20.336600065905138
177.23973985169232,834.7088574072527,20.681625477986703
177.23973985169232,835.1145546858522,21.00608048473524
177.23973985169232,835.5202519644519,21.30456133571167
177.23973985169232,835.9259492430514,21.610051101749757
177.23973985169232,836.331646521651,21.861129223058942
177.23973985169232,836.7373438002504,22.155746611237717
177.23973985169232,837.1430410788499,22.40779236668476
177.23973985169232,837.5487383574495,22.65635069681006
177.23973985169232,837.9544356360493,22.94658198012248
177.23973985169232,838.3601329146487,23.132468580074747
177.23973985169232,838.7658301932481,23.38189972239335
177.23973985169232,839.1715274718478,23.600727857860957
177.23973985169232,839.5772247504475,23.836156083276524
177.23973985169232,839.9829220290468,24.040623234572127
177.23973985169232,840.3886193076464,24.260199489271884
177.23973985169232,840.7943165862458,24.390816839332196
177.23973985169232,841.2000138648456,24.568330974057066
177.23973985169232,841.6057111434452,24.72628898914921
177.23973985169232,842.0114084220445,24.931484424581736
177.23973985169232,842.4171057006442,25.076426169580717
177.23973985169232,842.8228029792438,25.23163160497137
177.23973985169232,843.2285002578434,25.345337574892387
177.23973985169232,843.634197536443,25.447829386500924
177.23973985169232,844.0398948150424,25.567827656082933
177.23973985169232,844.445592093642,25.690983854675604
177.23973985169232,844.8512893722415,25.788843861343114
177.23973985169232,845.2569866508412,25.897313640772666
177.23973985169232,845.6626839294408,26.018092671224647
177.23973985169232,846.0683812080401,26.12053612243205
177.23973985169232,846.4740784866397,26.182342693374306
177.23973985169232,846.8797757652393,26.242502580173348
177.23973985169232,847.285473043839,26.335433583982184
177.23973985169232,847.6911703224383,26.38696545862945
177.23973985169232,848.0968676010381,26.45540347333836
177.23973985169232,848.5025648796376,26.533000399819866
177.23973985169232,848.9082621582369,26.55127457485065
177.23973985169232,849.3139594368365,26.60994103280529
177.23973985169232,849.7196567154363,26.62152712893682
177.23973985169232,850.1253539940358,26.71362287936253
177.23973985169232,850.5310512726353,26.73050052944819
177.23973985169232,850.936748551235,26.80357070223245
177.23973985169232,851.3424458298344,26.76944438055713
177.23973985169232,851.7481431084339,26.767245052983508
177.23973985169232,852.1538403870335,26.77643451791563
177.23973985169232,852.5595376656332,26.811190799935165
177.23973985169232,852.9652349442325,26.78111175413969
177.23973985169232,853.3709322228323,26.76520868231978
177.23973985169232,853.7766295014317,26.76691932292569
177.23973985169232,854.1823267800315,26.692061114280797
177.23973985169232,854.588024058631,26.672924437171787
177.23973985169232,854.9937213372301,26.677566382245193
177.23973985169232,855.3994186158301,26.627229391881038
177.23973985169232,855.8051158944293,26.617134091330577
177.23973985169232,856.2108131730292,26.53885636362794
177.23973985169232,856.6165104516284,26.442504514543494
177.23973985169232,857.0222077302282,26.314440324984556
177.23973985169232,857.4279050088278,26.288437484513913
177.23973985169232,857.8336022874271,26.21366883923248
177.23973985169232,858.239299566027,26.13467610015995
177.23973985169232,858.6449968446263,26.069007399353048
177.23973985169232,859.0506941232258,25.942408434131615
177.23973985169232,859.4563914018255,25.85838825901014
177.23973985169232,859.862088680425,25.76206400975851
177.23973985169232,860.2677859590246,25.614140986695393
177.23973985169232,860.6734832376242,25.507528678120874
177.23973985169232,861.0791805162233,25.334668637845734
177.23973985169232,861.4848777948233,25.26600038839444
177.23973985169232,861.8905750734226,25.088797842978238
177.23973985169232,862.2962723520221,24.95116565027199
177.23973985169232,862.701969630622,24.79557663027794
177.23973985169232,863.1076669092214,24.627467222571614
177.23973985169232,863.5133641878208,24.391715845734087
177.23973985169232,863.9190614664204,24.188632585106625
177.23973985169232,864.32475874502,24.083265876881693
177.23973985169232,864.7304560236196,23.839547601530068
177.23973985169232,865.136153302219,23.631919273398587
177.23973985169232,865.5418505808187,23.459001328669853
177.23973985169232,865.9475478594181,23.228553922341288
177.23973985169232,866.3532451380179,22.973628525265518
177.23973985169232,866.7589424166173,22.672644165618255
177.23973985169232,867.1646396952167,22.471602199669245
177.23973985169232,867.5703369738163,22.206799560146987
177.23973985169232,867.9760342524158,21.833753374597656
177.23973985169232,868.3817315310156,21.656058241178478
177.23973985169232,868.7874288096152,21.37038266152308
177.23973985169232,869.1931260882146,20.981451215714774
177.23973985169232,869.598823366814,20.69133009643154
177.23973985169232,870.0045206454139,20.378992905671943
177.23973985169232,870.4102179240134,20.041291655285637
177.23973985169232,870.8159152026128,19.718619496530074
177.23973985169232,871.2216124812124,19.318137927059986
177.23973985169232,871.6273097598121,18.82691634463755
177.23973985169232,872.0330070384116,18.349598825225655
177.23973985169232,872.4387043170108,18.019968132133545
177.23973985169232,872.8444015956107,17.570137100139046
177.23973985169232,873.2500988742103,17.00964281860969
177.23973985169232,873.6557961528096,16.63075050194265
177.23973985169232,874.0614934314094,16.20367484777523
177.23973985169232,874.4671907100088,15.708704000885449
177.23973985169232,874.8728879886083,15.078275099445538
177.23973985169232,875.2785852672081,14.462785884779503
177.23973985169232,875.6842825458077,13.932783546507642
177.23973985169232,876.0899798244074,13.285843719434407
177.23973985169232,876.4956771030064,12.595705497080116
177.23973985169232,876.9013743816062,11.93551183648031
177.23973985169232,877.3070716602057,11.002044613553661
177.23973985169232,877.7127689388053,10.038992139780213
177.23973985169232,878.1184662174048,9.012750859545003
177.23973985169232,878.5241634960046,7.8613366106406835
177.23973985169232,878.9298607746039,6.612049109835374
177.23973985169232,879.3355580532035,4.724766824934386
177.23973985169232,879.741255331803,2.4272731917655315
177.44203109321066,824.5664254422638,1.887370220703125
177.44203109321066,824.9721227208636,3.898615687103359
177.44203109321066,825.3778199994631,6.017553190595043
177.44203109321066,825.7835172780623,7.490583777578534
177.44203109321066,826.1892145566621,8.84130689628273
177.44203109321066,826.5949118352617,9.82859424183142
177.44203109321066,827.0006091138613,10.760699686463312
177.44203109321066,827.4063063924608,11.64984825181984
177.44203109321066,827.8120036710603,12.464826977948944
177.44203109321066,828.2177009496597,13.148029399234833
177.44203109321066,828.6233982282594,13.805607551936356
177.44203109321066,829.0290955068591,14.49156388089952
177.44203109321066,829.4347927854585,15.090752096394702
177.44203109321066,829.8404900640579,15.681796688938359
177.44203109321066,830.2461873426574,16.222487860996743
177.44203109321066,830.6518846212572,16.729802147782486
177.44203109321066,831.0575818998568,17.186151982470125
177.44203109321066,831.463279178456,17.68788346102919
177.44203109321066,831.8689764570559,18.18710308021063
177.44203109321066,832.2746737356553,18.60143001891101
177.44203109321066,832.6803710142551,18.98131251342377
177.44203109321066,833.0860682928545,19.39325612372745
177.44203109321066,833.4917655714542,19.769657049581422
177.44203109321066,833.8974628500538,20.114447249224096
177.44203109321066,834.3031601286531,20.46413175854231
177.44203109321066,834.7088574072527,20.77779924100665
177.44203109321066,835.1145546858522,21.123350134133187
177.44203109321066,835.5202519644519,21.399723116864493
177.44203109321066,835.9259492430514,21.707723313111863
177.44203109321066,836.331646521651,21.975801539146705
177.44203109321066,836.7373438002504,22.271268498442584
177.44203109321066,837.1430410788499,22.513831604031154
177.44203109321066,837.5487383574495,22.771877841955305
177.44203109321066,837.9544356360493,23.031458929510162
177.44203109321066,838.3601329146487,23.231515936500287
177.44203109321066,838.7658301932481,23.48320440753411
177.44203109321066,839.1715274718478,23.6954260073255
177.44203109321066,839.5772247504475,23.9289624571561
177.44203109321066,839.9829220290468,24.12382164074577
177.44203109321066,840.3886193076464,24.3260006427833
177.44203109321066,840.7943165862458,24.448465123671223
177.44203109321066,841.2000138648456,24.64677592448398
177.44203109321066,841.6057111434452,24.795884238446327
177.44203109321066,842.0114084220445,25.012740494334178
177.44203109321066,842.4171057006442,25.162889684881073
177.44203109321066,842.8228029792438,25.318622191678518
177.44203109321066,843.2285002578434,25.438577518883335
177.44203109321066,843.634197536443,25.516855225549584
177.44203109321066,844.0398948150424,25.66084762476068
177.44203109321066,844.445592093642,25.780679200314935
177.44203109321066,844.8512893722415,25.884534078074594
177.44203109321066,845.2569866508412,25.988266241691328
177.44203109321066,845.6626839294408,26.098641195473135
177.44203109321066,846.0683812080401,26.20976412184447
177.44203109321066,846.4740784866397,26.26535799424115
177.44203109321066,846.8797757652393,26.327621573286226
177.44203109321066,847.285473043839,26.40675541976126
177.44203109321066,847.6911703224383,26.48032367283467
177.44203109321066,848.0968676010381,26.528666467111893
177.44203109321066,848.5025648796376,26.618819590693747
177.44203109321066,848.9082621582369,26.61911728666282
177.44203109321066,849.3139594368365,26.68991293791423
177.44203109321066,849.7196567154363,26.71934590350136
177.44203109321066,850.1253539940358,26.788914910750943
177.44203109321066,850.5310512726353,26.813437376309842
177.44203109321066,850.936748551235,26.88216456927564
177.44203109321066,851.3424458298344,26.88547382250984
177.44203109321066,851.7481431084339,26.861649001785278
177.44203109321066,852.1538403870335,26.87399744814626
177.44203109321066,852.5595376656332,26.884780277477994
177.44203109321066,852.9652349442325,26.86228418189379
177.44203109321066,853.3709322228323,26.847383673106354
177.44203109321066,853.7766295014317,26.84962608039721
177.44203109321066,854.1823267800315,26.777588977776613
177.44203109321066,854.588024058631,26.767182546907065
177.44203109321066,854.9937213372301,26.751273023603133
177.44203109321066,855.3994186158301,26.749414492127993
177.44203109321066,855.8051158944293,26.7029520732519
177.44203109321066,856.2108131730292,26.609157386269793
177.44203109321066,856.6165104516284,26.49809420065623
177.44203109321066,857.0222077302282,26.460893686062267
177.44203109321066,857.4279050088278,26.36955901634826
177.44203109321066,857.8336022874271,26.29790835202405
177.44203109321066,858.239299566027,26.239046253853594
177.44203109321066,858.6449968446263,26.174063636472006
177.44203109321066,859.0506941232258,26.019455220095715
177.44203109321066,859.4563914018255,25.944174356690386
177.44203109321066,859.862088680425,25.826670316627194
177.44203109321066,860.2677859590246,25.714537981756486
177.44203109321066,860.6734832376242,25.57446419307708
177.44203109321066,861.0791805162233,25.439913357954115
177.44203109321066,861.4848777948233,25.352419586266915
177.44203109321066,861.8905750734226,25.12942895923826
177.44203109321066,862.2962723520221,25.03412386979489
177.44203109321066,862.701969630622,24.885754287355134
177.44203109321066,863.1076669092214,24.72806486860629
177.44203109321066,863.5133641878208,24.491872431690346
177.44203109321066,863.9190614664204,24.290735624874028
177.44203109321066,864.32475874502,24.16381151590732
177.44203109321066,864.7304560236196,23.931802681870085
177.44203109321066,865.136153302219,23.73547039180122
177.44203109321066,865.5418505808187,23.538981747529544
177.44203109321066,865.9475478594181,23.32433780052302
177.44203109321066,866.3532451380179,23.05589490027095
177.44203109321066,866.7589424166173,22.809380195044763
177.44203109321066,867.1646396952167,22.566578815428965
177.44203109321066,867.5703369738163,22.264683573111483
177.44203109321066,867.9760342524158,21.94335650600926
177.44203109321066,868.3817315310156,21.717640733616307
177.44203109321066,868.7874288096152,21.452936637345868
177.44203109321066,869.1931260882146,21.121603473705907
177.44203109321066,869.598823366814,20.77491989883762
177.44203109321066,870.0045206454139,20.445665891756835
177.44203109321066,870.4102179240134,20.143564758717158
177.44203109321066,870.8159152026128,19.805742042109596
177.44203109321066,871.2216124812124,19.482514837185786
177.44203109321066,871.6273097598121,18.941193581845777
177.44203109321066,872.0330070384116,18.416831198404257
177.44203109321066,872.4387043170108,18.13165421700357
177.44203109321066,872.8444015956107,17.713924379336394
177.44203109321066,873.2500988742103,17.146861085794
177.44203109321066,873.6557961528096,16.71565229906574
177.44203109321066,874.0614934314094,16.333863549846445
177.44203109321066,874.4671907100088,15.836331065540126
177.44203109321066,874.8728879886083,15.265841232736339
177.44203109321066,875.6842825458077,14.071574706935998
177.44203109321066,876.0899798244074,13.409191480105372
177.44203109321066,876.4956771030064,12.776191202193026
177.44203109321066,876.9013743816062,12.111964045729792
177.44203109321066,877.3070716602057,11.170947510078543
177.44203109321066,877.7127689388053,10.235253508091716
177.44203109321066,878.1184662174048,9.22309919424625
177.44203109321066,878.5241634960046,8.124280776739921
177.44203109321066,878.9298607746039,6.90770128500664
177.44203109321066,879.3355580532035,5.214546690665855
177.44203109321066,879.741255331803,2.8914020351175487
177.44203109321066,880.1469526104026,1.3334931341697425
177.64432233472914,824.5664254422638,2.164132748063507
177.64432233472914,824.9721227208636,4.327208390542964
177.64432233472914,825.3778199994631,6.335398602124356
177.64432233472914,825.7835172780623,7.777894306119291
177.64432233472914,826.1892145566621,9.087184392436017
177.64432233472914,826.5949118352617,10.019958944963843
177.64432233472914,827.0006091138613,10.942867456878542
177.64432233472914,827.4063063924608,11.814318078269118
177.64432233472914,827.8120036710603,12.63607800733822
177.64432233472914,828.2177009496597,13.314690527743265
177.64432233472914,828.6233982282594,13.959484624825334
177.64432233472914,829.0290955068591,14.641839502499305
177.64432233472914,829.4347927854585,15.220784922551067
177.64432233472914,829.8404900640579,15.830198163973929
177.64432233472914,830.2461873426574,16.38429758851105
177.64432233472914,830.6518846212572,16.84953110060239
177.64432233472914,831.0575818998568,17.29593391438593
177.64432233472914,831.463279178456,17.80223220993719
177.64432233472914,831.8689764570559,18.301862158957558
177.64432233472914,832.2746737356553,18.709143329819984
177.64432233472914,832.6803710142551,19.096720942092077
177.64432233472914,833.0860682928545,19.501658048313473
177.64432233472914,833.4917655714542,19.885041534201523
177.64432233472914,833.8974628500538,20.208068568400446
177.64432233472914,834.3031601286531,20.59171077984388
177.64432233472914,834.7088574072527,20.862784558736347
177.64432233472914,835.1145546858522,21.232875709553227
177.64432233472914,835.5202519644519,21.500461373909015
177.64432233472914,835.9259492430514,21.789728203143213
177.64432233472914,836.331646521651,22.086124856235415
177.64432233472914,836.7373438002504,22.380798116045753
177.64432233472914,837.1430410788499,22.611542085237375
177.64432233472914,837.5487383574495,22.849589863852334
177.64432233472914,837.9544356360493,23.102965734304508
177.64432233472914,838.3601329146487,23.327852287399164
177.64432233472914,838.7658301932481,23.57210428445014
177.64432233472914,839.1715274718478,23.77651659528332
177.64432233472914,839.5772247504475,23.998741182648892
177.64432233472914,839.9829220290468,24.207240546827975
177.64432233472914,840.3886193076464,24.40653782978002
177.64432233472914,840.7943165862458,24.507892496306237
177.64432233472914,841.2000138648456,24.76012846104593
177.64432233472914,841.6057111434452,24.907931651615083
177.64432233472914,842.0114084220445,25.125273306834043
177.64432233472914,842.4171057006442,25.26854263599604
177.64432233472914,842.8228029792438,25.421029091857726
177.64432233472914,843.2285002578434,25.515509248317567
177.64432233472914,843.634197536443,25.609438284508283
177.64432233472914,844.0398948150424,25.754082561209227
177.64432233472914,844.445592093642,25.87638501170742
177.64432233472914,844.8512893722415,25.98136773858095
177.64432233472914,845.2569866508412,26.068015388637665
177.64432233472914,845.6626839294408,26.180680606816786
177.64432233472914,846.0683812080401,26.26143669443473
177.64432233472914,846.4740784866397,26.331816920971075
177.64432233472914,846.8797757652393,26.408666221410773
177.64432233472914,847.285473043839,26.484378663127355
177.64432233472914,847.6911703224383,26.559523384209545
177.64432233472914,848.0968676010381,26.631000243483808
177.64432233472914,848.5025648796376,26.697859234194606
177.64432233472914,848.9082621582369,26.714341121446683
177.64432233472914,849.3139594368365,26.793371925640617
177.64432233472914,849.7196567154363,26.821269748481686
177.64432233472914,850.1253539940358,26.86023810886096
177.64432233472914,850.5310512726353,26.89119385376383
177.64432233472914,850.936748551235,26.949545244635534
177.64432233472914,851.3424458298344,26.94377368947054
177.64432233472914,851.7481431084339,26.91585982260629
177.64432233472914,852.1538403870335,26.96575641774583
177.64432233472914,852.5595376656332,26.947920423141714
177.64432233472914,852.9652349442325,26.91922517700689
177.64432233472914,853.3709322228323,26.907156836195373
177.64432233472914,853.7766295014317,26.910249695297953
177.64432233472914,854.1823267800315,26.850015495358885
177.64432233472914,854.588024058631,26.810782900505775
177.64432233472914,854.9937213372301,26.7920682903743
177.64432233472914,855.3994186158301,26.787722377741996
177.64432233472914,855.8051158944293,26.768564774339193
177.64432233472914,856.2108131730292,26.700071166973505
177.64432233472914,856.6165104516284,26.585363528250618
177.64432233472914,857.0222077302282,26.535054997159605
177.64432233472914,857.4279050088278,26.467468917625112
177.64432233472914,857.8336022874271,26.390265461937492
177.64432233472914,858.239299566027,26.317258489501906
177.64432233472914,858.6449968446263,26.25303956990882
177.64432233472914,859.0506941232258,26.07859518249115
177.64432233472914,859.4563914018255,26.014348095644305
177.64432233472914,859.862088680425,25.88096788815283
177.64432233472914,860.2677859590246,25.79673815707889
177.64432233472914,860.6734832376242,25.666456492053765
177.64432233472914,861.0791805162233,25.5815325333062
177.64432233472914,861.4848777948233,25.451835725353313
177.64432233472914,861.8905750734226,25.232877047711206
177.64432233472914,862.2962723520221,25.12061887423234
177.64432233472914,862.701969630622,24.977789850581864
177.64432233472914,863.1076669092214,24.790486173773292
177.64432233472914,863.5133641878208,24.57069604933124
177.64432233472914,863.9190614664204,24.400292897281663
177.64432233472914,864.32475874502,24.231664817574885
177.64432233472914,864.7304560236196,24.0182086755555
177.64432233472914,865.136153302219,23.830134364309547
177.64432233472914,865.5418505808187,23.617513781456132
177.64432233472914,865.9475478594181,23.419203585467397
177.64432233472914,866.3532451380179,23.12380574738194
177.64432233472914,866.7589424166173,22.87098943015698
177.64432233472914,867.1646396952167,22.661743042627645
177.64432233472914,867.5703369738163,22.334978937732387
177.64432233472914,867.9760342524158,22.071313948176464
177.64432233472914,868.3817315310156,21.80519916788953
177.64432233472914,868.7874288096152,21.531997360824555
177.64432233472914,869.1931260882146,21.237972011811163
177.64432233472914,869.598823366814,20.85885578634469
177.64432233472914,870.0045206454139,20.541482661161233
177.64432233472914,870.4102179240134,20.243136993390035
177.64432233472914,870.8159152026128,19.91737967120247
177.64432233472914,871.2216124812124,19.593436210425086
177.64432233472914,871.6273097598121,19.096826706893506
177.64432233472914,872.0330070384116,18.559685386586825
177.64432233472914,872.4387043170108,18.217615985017687
177.64432233472914,872.8444015956107,17.843741989341375
177.64432233472914,873.2500988742103,17.310340492393035
177.64432233472914,873.6557961528096,16.84124882613007
177.64432233472914,874.0614934314094,16.420144371383646
177.64432233472914,874.4671907100088,15.957707777893214
177.64432233472914,874.8728879886083,15.456794969846579
177.64432233472914,875.2785852672081,14.778441379568559
177.64432233472914,875.6842825458077,14.213618519516496
177.64432233472914,876.0899798244074,13.55181388041519
177.64432233472914,876.4956771030064,12.94485615586448
177.64432233472914,876.9013743816062,12.243816014012332
177.64432233472914,877.3070716602057,11.34044583544174
177.64432233472914,877.7127689388053,10.426979003139149
177.64432233472914,878.1184662174048,9.452833460008396
177.64432233472914,878.5241634960046,8.433582566925748
177.64432233472914,878.9298607746039,7.181976606425545
177.64432233472914,879.3355580532035,5.509229446732178
177.64432233472914,879.741255331803,3.245233664892057
177.64432233472914,880.1469526104026,1.392021319709594
177.84661357624745,824.5664254422638,2.5453587059072427
177.84661357624745,824.9721227208636,4.670733327875911
177.84661357624745,825.3778199994631,6.6378222512289
177.84661357624745,825.7835172780623,8.05952680095773
177.84661357624745,826.1892145566621,9.299944753908363
177.84661357624745,826.5949118352617,10.23133425368191
177.84661357624745,827.0006091138613,11.17602109263763
177.84661357624745,827.4063063924608,11.995005600407628
177.84661357624745,827.8120036710603,12.787582282757432
177.84661357624745,828.2177009496597,13.473043811638227
177.84661357624745,828.6233982282594,14.140271882385955
177.84661357624745,829.0290955068591,14.747124881602831
177.84661357624745,829.4347927854585,15.337160245549137
177.84661357624745,829.8404900640579,15.951472241859287
177.84661357624745,830.2461873426574,16.4987858882145
177.84661357624745,830.6518846212572,16.954426858667336
177.84661357624745,831.0575818998568,17.393419345405015
177.84661357624745,831.463279178456,17.943150818077456
177.84661357624745,831.8689764570559,18.428022964407496
177.84661357624745,832.2746737356553,18.82052097978727
177.84661357624745,832.6803710142551,19.191495068906384
177.84661357624745,833.0860682928545,19.619630668829522
177.84661357624745,833.4917655714542,19.96465158858886
177.84661357624745,833.8974628500538,20.316218754571427
177.84661357624745,834.3031601286531,20.70707899535371
177.84661357624745,834.7088574072527,20.95661256991176
177.84661357624745,835.1145546858522,21.309685183024
177.84661357624745,835.5202519644519,21.624583312625685
177.84661357624745,835.9259492430514,21.879617361198715
177.84661357624745,836.331646521651,22.200902827073016
177.84661357624745,836.7373438002504,22.43989252526375
177.84661357624745,837.1430410788499,22.68868078307171
177.84661357624745,837.5487383574495,22.910165439798373
177.84661357624745,837.9544356360493,23.197822189278703
177.84661357624745,838.3601329146487,23.426879512929055
177.84661357624745,838.7658301932481,23.66145988893705
177.84661357624745,839.1715274718478,23.887611736142574
177.84661357624745,839.5772247504475,24.110853858752268
177.84661357624745,839.9829220290468,24.306229221670712
177.84661357624745,840.3886193076464,24.465760456479
177.84661357624745,840.7943165862458,24.622149674915647
177.84661357624745,841.2000138648456,24.88017582357598
177.84661357624745,841.6057111434452,25.011912883260834
177.84661357624745,842.0114084220445,25.220978729521015
177.84661357624745,842.4171057006442,25.370294965328256
177.84661357624745,842.8228029792438,25.49686570533749
177.84661357624745,843.2285002578434,25.603326176989878
177.84661357624745,843.634197536443,25.697593523080435
177.84661357624745,844.0398948150424,25.833336873733348
177.84661357624745,844.445592093642,25.949953049702835
177.84661357624745,844.8512893722415,26.08422228825726
177.84661357624745,845.2569866508412,26.192566496395468
177.84661357624745,845.6626839294408,26.251344903368324
177.84661357624745,846.0683812080401,26.326319168401753
177.84661357624745,846.4740784866397,26.410096551612877
177.84661357624745,846.8797757652393,26.482272464289633
177.84661357624745,847.285473043839,26.563219594767897
177.84661357624745,847.6911703224383,26.64441042596631
177.84661357624745,848.0968676010381,26.71401431557795
177.84661357624745,848.5025648796376,26.793240414488835
177.84661357624745,848.9082621582369,26.795593137514576
177.84661357624745,849.3139594368365,26.891974112714305
177.84661357624745,849.7196567154363,26.905183676097533
177.84661357624745,850.1253539940358,26.944596367980374
177.84661357624745,850.5310512726353,26.997649068793876
177.84661357624745,850.936748551235,27.03226991579475
177.84661357624745,851.3424458298344,27.007869965660696
177.84661357624745,851.7481431084339,27.006915325440215
177.84661357624745,852.1538403870335,27.061963288247632
177.84661357624745,852.5595376656332,27.039866894549768
177.84661357624745,852.9652349442325,26.998224070501966
177.84661357624745,853.3709322228323,26.992803879773255
177.84661357624745,853.7766295014317,26.975187217140462
177.84661357624745,854.1823267800315,26.91833741684524
177.84661357624745,854.588024058631,26.911557717309872
177.84661357624745,854.9937213372301,26.892318619194423
177.84661357624745,855.3994186158301,26.84803645127903
177.84661357624745,855.8051158944293,26.824158355821794
177.84661357624745,856.2108131730292,26.77401721045621
177.84661357624745,856.6165104516284,26.678339639786614
177.84661357624745,857.0222077302282,26.62178905665998
177.84661357624745,857.4279050088278,26.541556875541087
177.84661357624745,857.8336022874271,26.50961689330238
177.84661357624745,858.239299566027,26.411921178343544
177.84661357624745,858.6449968446263,26.29542625573675
177.84661357624745,859.0506941232258,26.17626536597419
177.84661357624745,859.4563914018255,26.098654429049226
177.84661357624745,859.862088680425,25.98580042019146
177.84661357624745,860.2677859590246,25.885191704011024
177.84661357624745,860.6734832376242,25.774217142290695
177.84661357624745,861.0791805162233,25.66455795191056
177.84661357624745,861.4848777948233,25.541753461666318
177.84661357624745,861.8905750734226,25.303535386240064
177.84661357624745,862.2962723520221,25.21137349857947
177.84661357624745,862.701969630622,25.05941035086577
177.84661357624745,863.1076669092214,24.88662689994027
177.84661357624745,863.5133641878208,24.721375731452135
177.84661357624745,863.9190614664204,24.525739110535916
177.84661357624745,864.32475874502,24.29878005644293
177.84661357624745,864.7304560236196,24.137147832583068
177.84661357624745,865.136153302219,23.926210507512003
177.84661357624745,865.5418505808187,23.695670209616118
177.84661357624745,865.9475478594181,23.487878512199632
177.84661357624745,866.3532451380179,23.23083246608198
177.84661357624745,866.7589424166173,22.95445040912796
177.84661357624745,867.1646396952167,22.751869057883138
177.84661357624745,867.5703369738163,22.364308841305547
177.84661357624745,867.9760342524158,22.213076946126527
177.84661357624745,868.3817315310156,21.911968575550713
177.84661357624745,868.7874288096152,21.599677342028453
177.84661357624745,869.1931260882146,21.3439154624533
177.84661357624745,869.598823366814,20.915746728450657
177.84661357624745,870.0045206454139,20.66762735930088
177.84661357624745,870.4102179240134,20.362975365035886
177.84661357624745,870.8159152026128,20.002758030450742
177.84661357624745,871.2216124812124,19.67707326628268
177.84661357624745,871.6273097598121,19.224413395553736
177.84661357624745,872.0330070384116,18.701503341775823
177.84661357624745,872.4387043170108,18.29874653272049
177.84661357624745,872.8444015956107,17.950142419595988
177.84661357624745,873.2500988742103,17.420783874114832
177.84661357624745,873.6557961528096,16.950166172685318
177.84661357624745,874.0614934314094,16.5384294411585
177.84661357624745,874.4671907100088,16.08002247385636
177.84661357624745,874.8728879886083,15.609570517123819
177.84661357624745,875.2785852672081,14.933011058336566
177.84661357624745,875.6842825458077,14.403081482924259
177.84661357624745,876.0899798244074,13.762166988162999
177.84661357624745,876.4956771030064,13.12261657046986
177.84661357624745,876.9013743816062,12.348666213966247
177.84661357624745,877.3070716602057,11.537838170429707
177.84661357624745,877.7127689388053,10.641929491008208
177.84661357624745,878.1184662174048,9.688290360731601
177.84661357624745,878.5241634960046,8.704500632331921
177.84661357624745,878.9298607746039,7.483985906468898
177.84661357624745,879.3355580532035,5.795364812858851
177.84661357624745,879.741255331803,3.708028274104669
177.84661357624745,880.1469526104026,1.6128341613883745
178.0489048177659,824.1607281636645,1.2560578207415931
178.0489048177659,824.5664254422638,2.9789764320469607
178.0489048177659,824.9721227208636,5.073456657909835
178.0489048177659,825.3778199994631,6.976966466873773
178.0489048177659,825.7835172780623,8.356071810739794
178.0489048177659,826.1892145566621,9.483517534121814
178.0489048177659,826.5949118352617,10.448181904921707
178.0489048177659,827.0006091138613,11.374581557435969
178.0489048177659,827.4063063924608,12.206811888303344
178.0489048177659,827.8120036710603,12.963515573973185
178.0489048177659,828.2177009496597,13.625245514305727
178.0489048177659,828.6233982282594,14.312832633174674
178.0489048177659,829.0290955068591,14.873378382828284
178.0489048177659,829.4347927854585,15.479477179263087
178.0489048177659,829.8404900640579,16.089441807825786
178.0489048177659,830.2461873426574,16.612327396009128
178.0489048177659,830.6518846212572,17.082792769454425
178.0489048177659,831.0575818998568,17.518825609794995
178.0489048177659,831.463279178456,18.06336616107384
178.0489048177659,831.8689764570559,18.528255683132294
178.0489048177659,832.2746737356553,18.934859616675787
178.0489048177659,832.6803710142551,19.31400527761345
178.0489048177659,833.0860682928545,19.689122156003243
178.0489048177659,833.4917655714542,20.0609348331872
178.0489048177659,833.8974628500538,20.43088064245294
178.0489048177659,834.3031601286531,20.790505269180684
178.0489048177659,834.7088574072527,21.07212385027451
178.0489048177659,835.1145546858522,21.421444540807112
178.0489048177659,835.5202519644519,21.730092820592425
178.0489048177659,835.9259492430514,22.000690707566076
178.0489048177659,836.331646521651,22.283686002683773
178.0489048177659,836.7373438002504,22.51287359713358
178.0489048177659,837.1430410788499,22.780747429535833
178.0489048177659,837.5487383574495,23.015932796181954
178.0489048177659,837.9544356360493,23.270787378970677
178.0489048177659,838.3601329146487,23.528222303798977
178.0489048177659,838.7658301932481,23.769402906437378
178.0489048177659,839.1715274718478,23.990953481188196
178.0489048177659,839.5772247504475,24.200778240118414
178.0489048177659,839.9829220290468,24.379657475660018
178.0489048177659,840.3886193076464,24.549657626740945
178.0489048177659,840.7943165862458,24.748322138587422
178.0489048177659,841.2000138648456,24.95001355322482
178.0489048177659,841.6057111434452,25.12420647473397
178.0489048177659,842.0114084220445,25.297768010124678
178.0489048177659,842.4171057006442,25.448122060281936
178.0489048177659,842.8228029792438,25.568519201836793
178.0489048177659,843.2285002578434,25.692946108233965
178.0489048177659,843.634197536443,25.792083883431264
178.0489048177659,844.0398948150424,25.929457584735566
178.0489048177659,844.445592093642,26.028709048953864
178.0489048177659,844.8512893722415,26.176316528156317
178.0489048177659,845.2569866508412,26.26553356268927
178.0489048177659,845.6626839294408,26.337872587515417
178.0489048177659,846.0683812080401,26.39732962248038
178.0489048177659,846.4740784866397,26.483144028048937
178.0489048177659,846.8797757652393,26.569081357213964
178.0489048177659,847.285473043839,26.610428677200545
178.0489048177659,847.6911703224383,26.726963923276813
178.0489048177659,848.0968676010381,26.81452796228026
178.0489048177659,848.5025648796376,26.87755519912171
178.0489048177659,848.9082621582369,26.89780483545688
178.0489048177659,849.3139594368365,26.96222000476506
178.0489048177659,849.7196567154363,27.011005182161593
178.0489048177659,850.1253539940358,27.02658561685827
178.0489048177659,850.5310512726353,27.086408948308687
178.0489048177659,850.936748551235,27.122944093669563
178.0489048177659,851.3424458298344,27.069491795107215
178.0489048177659,851.7481431084339,27.087301036409666
178.0489048177659,852.1538403870335,27.130418923680793
178.0489048177659,852.5595376656332,27.130839933616755
178.0489048177659,852.9652349442325,27.097194853030313
178.0489048177659,853.3709322228323,27.083006824128297
178.0489048177659,853.7766295014317,27.055729266065317
178.0489048177659,854.1823267800315,26.99135718139271
178.0489048177659,854.588024058631,27.006291299477994
178.0489048177659,854.9937213372301,27.01301087655584
178.0489048177659,855.3994186158301,26.943416211864154
178.0489048177659,855.8051158944293,26.91060763664745
178.0489048177659,856.2108131730292,26.834641559978945
178.0489048177659,856.6165104516284,26.732103659100208
178.0489048177659,857.0222077302282,26.70281011054779
178.0489048177659,857.4279050088278,26.636547130103963
178.0489048177659,857.8336022874271,26.56362290671037
178.0489048177659,858.239299566027,26.50969202186902
178.0489048177659,858.6449968446263,26.404846577780912
178.0489048177659,859.0506941232258,26.285622930838006
178.0489048177659,859.4563914018255,26.22001170311601
178.0489048177659,859.862088680425,26.068287342230665
178.0489048177659,860.2677859590246,25.981723070583985
178.0489048177659,860.6734832376242,25.85493026085403
178.0489048177659,861.0791805162233,25.742749272507695
178.0489048177659,861.4848777948233,25.629964842432695
178.0489048177659,861.8905750734226,25.44396168843903
178.0489048177659,862.2962723520221,25.284199484675046
178.0489048177659,862.701969630622,25.137877311659086
178.0489048177659,863.1076669092214,24.98443129139151
178.0489048177659,863.5133641878208,24.796381086855366
178.0489048177659,863.9190614664204,24.623984477719933
178.0489048177659,864.32475874502,24.38356228208109
178.0489048177659,864.7304560236196,24.233468242528726
178.0489048177659,865.136153302219,24.020855812737956
178.0489048177659,865.5418505808187,23.76501120720603
178.0489048177659,865.9475478594181,23.56929004268157
178.0489048177659,866.3532451380179,23.33023269608305
178.0489048177659,866.7589424166173,23.06559327737972
178.0489048177659,867.1646396952167,22.82095232356958
178.0489048177659,867.5703369738163,22.39971516507364
178.0489048177659,867.9760342524158,22.329107676641105
178.0489048177659,868.3817315310156,22.00111225110336
178.0489048177659,868.7874288096152,21.68389868367434
178.0489048177659,869.1931260882146,21.45481897953128
178.0489048177659,869.598823366814,20.998752050054325
178.0489048177659,870.0045206454139,20.74150379117186
178.0489048177659,870.4102179240134,20.440015818591387
178.0489048177659,870.8159152026128,20.088529772450933
178.0489048177659,871.2216124812124,19.747217364488346
178.0489048177659,871.6273097598121,19.319809807759047
178.0489048177659,872.0330070384116,18.84085800093743
178.0489048177659,872.4387043170108,18.392514175787486
178.0489048177659,872.8444015956107,18.0569296993769
178.0489048177659,873.2500988742103,17.527680255387303
178.0489048177659,873.6557961528096,17.073061018435123
178.0489048177659,874.0614934314094,16.649950666395984
178.0489048177659,874.4671907100088,16.19472294840991
178.0489048177659,874.8728879886083,15.729088511720594
178.0489048177659,875.2785852672081,15.142029212573217
178.0489048177659,875.6842825458077,14.586037795214684
178.0489048177659,876.0899798244074,13.918684652051484
178.0489048177659,876.4956771030064,13.270680089679477
178.0489048177659,876.9013743816062,12.471249287705016
178.0489048177659,877.3070716602057,11.691498137129203
178.0489048177659,877.7127689388053,10.837100268351625
178.0489048177659,878.1184662174048,9.911394987865643
178.0489048177659,878.5241634960046,8.916520464894463
178.0489048177659,878.9298607746039,7.72065490170059
178.0489048177659,879.3355580532035,6.055963777937276
178.0489048177659,879.741255331803,4.140326782206418
178.0489048177659,880.1469526104026,1.9522076292213173
178.25119605928424,824.1607281636645,1.3934222421700826
178.25119605928424,824.5664254422638,3.415218417196577
178.25119605928424,824.9721227208636,5.4795735177792215
178.25119605928424,825.3778199994631,7.206353153620386
178.25119605928424,825.7835172780623,8.611937760520352
178.25119605928424,826.1892145566621,9.635663207429227
178.25119605928424,826.5949118352617,10.6361582877189
178.25119605928424,827.0006091138613,11.530959022354391
178.25119605928424,827.4063063924608,12.382517156352536
178.25119605928424,827.8120036710603,13.106214749589016
178.25119605928424,828.2177009496597,13.768008288367898
178.25119605928424,828.6233982282594,14.452897381883146
178.25119605928424,829.0290955068591,15.041278069353778
178.25119605928424,829.4347927854585,15.624352672434293
178.25119605928424,829.8404900640579,16.20620224051916
178.25119605928424,830.2461873426574,16.728291531158956
178.25119605928424,830.6518846212572,17.19807704946824
178.25119605928424,831.0575818998568,17.664306568500646
178.25119605928424,831.463279178456,18.1801776789748
178.25119605928424,831.8689764570559,18.618807269996957
178.25119605928424,832.2746737356553,19.031086796383843
178.25119605928424,832.6803710142551,19.411757909179006
178.25119605928424,833.0860682928545,19.804594714355844
178.25119605928424,833.4917655714542,20.169934993089928
178.25119605928424,833.8974628500538,20.54656035700237
178.25119605928424,834.3031601286531,20.863982778052023
178.25119605928424,834.7088574072527,21.19239948927227
178.25119605928424,835.1145546858522,21.531980178098078
178.25119605928424,835.5202519644519,21.81515119356207
178.25119605928424,835.9259492430514,22.087536960891743
178.25119605928424,836.331646521651,22.336010608231433
178.25119605928424,836.7373438002504,22.605442806089528
178.25119605928424,837.1430410788499,22.8748013922322
178.25119605928424,837.5487383574495,23.142693259703755
178.25119605928424,837.9544356360493,23.3398005119576
178.25119605928424,838.3601329146487,23.637557446306083
178.25119605928424,838.7658301932481,23.862505376639092
178.25119605928424,839.1715274718478,24.065980259274678
178.25119605928424,839.5772247504475,24.282741395678613
178.25119605928424,839.9829220290468,24.45590010677918
178.25119605928424,840.3886193076464,24.62500622567082
178.25119605928424,840.7943165862458,24.83748398952235
178.25119605928424,841.2000138648456,25.02555565283792
178.25119605928424,841.6057111434452,25.22319447411828
178.25119605928424,842.0114084220445,25.373485637575374
178.25119605928424,842.4171057006442,25.528427796446103
178.25119605928424,842.8228029792438,25.649786323502113
178.25119605928424,843.2285002578434,25.762012440152546
178.25119605928424,843.634197536443,25.900393994087587
178.25119605928424,844.0398948150424,26.01348434919979
178.25119605928424,844.445592093642,26.136870750072546
178.25119605928424,844.8512893722415,26.254861131990978
178.25119605928424,845.2569866508412,26.342385968491662
178.25119605928424,845.6626839294408,26.418475072716923
178.25119605928424,846.0683812080401,26.477136413794604
178.25119605928424,846.4740784866397,26.57458342658969
178.25119605928424,846.8797757652393,26.633259612110212
178.25119605928424,847.285473043839,26.684763786895797
178.25119605928424,847.6911703224383,26.807033088828135
178.25119605928424,848.0968676010381,26.902130749938074
178.25119605928424,848.5025648796376,26.963011183905305
178.25119605928424,848.9082621582369,27.02366395820787
178.25119605928424,849.3139594368365,27.06982383347183
178.25119605928424,849.7196567154363,27.087729876055644
178.25119605928424,850.1253539940358,27.099327771652273
178.25119605928424,850.5310512726353,27.154117664045295
178.25119605928424,850.936748551235,27.186669552680055
178.25119605928424,851.3424458298344,27.140664809803855
178.25119605928424,851.7481431084339,27.166624123650852
178.25119605928424,852.1538403870335,27.20314393891759
178.25119605928424,852.5595376656332,27.186330520605512
178.25119605928424,852.9652349442325,27.194203375924793
178.25119605928424,853.3709322228323,27.194249970777697
178.25119605928424,853.7766295014317,27.151457931210796
178.25119605928424,854.1823267800315,27.10364795056285
178.25119605928424,854.588024058631,27.090865833067213
178.25119605928424,854.9937213372301,27.089717955744888
178.25119605928424,855.3994186158301,27.04054085027197
178.25119605928424,855.8051158944293,27.021527583149073
178.25119605928424,856.2108131730292,26.92203491748628
178.25119605928424,856.6165104516284,26.815824930294337
178.25119605928424,857.0222077302282,26.762896938713016
178.25119605928424,857.4279050088278,26.742081349044575
178.25119605928424,857.8336022874271,26.65648936064391
178.25119605928424,858.239299566027,26.581201220500038
178.25119605928424,858.6449968446263,26.50711523161681
178.25119605928424,859.0506941232258,26.400484150377796
178.25119605928424,859.4563914018255,26.27557068604174
178.25119605928424,859.862088680425,26.147331050564503
178.25119605928424,860.2677859590246,26.054362176429986
178.25119605928424,860.6734832376242,25.916459153163107
178.25119605928424,861.0791805162233,25.824317364783255
178.25119605928424,861.4848777948233,25.699140258090026
178.25119605928424,861.8905750734226,25.516710052028223
178.25119605928424,862.2962723520221,25.376887717835473
178.25119605928424,862.701969630622,25.218079783260016
178.25119605928424,863.1076669092214,25.056580353812603
178.25119605928424,863.5133641878208,24.868858414141343
178.25119605928424,863.9190614664204,24.722550530100413
178.25119605928424,864.32475874502,24.45705301709204
178.25119605928424,864.7304560236196,24.30431296408643
178.25119605928424,865.136153302219,24.090113647631302
178.25119605928424,865.5418505808187,23.83834290227564
178.25119605928424,865.9475478594181,23.66856661711573
178.25119605928424,866.3532451380179,23.38729606356869
178.25119605928424,866.7589424166173,23.177438789294946
178.25119605928424,867.1646396952167,22.882679681696803
178.25119605928424,867.5703369738163,22.499177581546583
178.25119605928424,867.9760342524158,22.399312917910656
178.25119605928424,868.3817315310156,22.115347889439594
178.25119605928424,868.7874288096152,21.747242348342482
178.25119605928424,869.1931260882146,21.551626891278932
178.25119605928424,869.598823366814,21.105104490150303
178.25119605928424,870.0045206454139,20.790794092066253
178.25119605928424,870.4102179240134,20.538045420467544
178.25119605928424,870.8159152026128,20.20245640537384
178.25119605928424,871.2216124812124,19.85165084175572
178.25119605928424,871.6273097598121,19.413206355358096
178.25119605928424,872.0330070384116,18.97596236239461
178.25119605928424,872.4387043170108,18.49938765686112
178.25119605928424,872.8444015956107,18.17664772005383
178.25119605928424,873.2500988742103,17.64963813746878
178.25119605928424,873.6557961528096,17.16584964452959
178.25119605928424,874.0614934314094,16.727968236678638
178.25119605928424,874.4671907100088,16.302827875555632
178.25119605928424,874.8728879886083,15.84747029783552
178.25119605928424,875.2785852672081,15.249256412689492
178.25119605928424,875.6842825458077,14.761581367902709
178.25119605928424,876.0899798244074,14.107338045344125
178.25119605928424,876.4956771030064,13.430065155151471
178.25119605928424,876.9013743816062,12.628029788116644
178.25119605928424,877.3070716602057,11.867070682819747
178.25119605928424,877.7127689388053,11.048515945404548
178.25119605928424,878.1184662174048,10.130882010944315
178.25119605928424,878.5241634960046,9.192340812340094
178.25119605928424,878.9298607746039,7.926732780711104
178.25119605928424,879.3355580532035,6.4419287886256065
178.25119605928424,879.741255331803,4.507704412924369
178.25119605928424,880.1469526104026,2.314065826611743
178.25119605928424,880.5526498890024,0.9585701342356089
178.45348730080266,824.1607281636645,1.6472294041936972
178.45348730080266,824.5664254422638,3.8455157465705674
178.45348730080266,824.9721227208636,5.787021207827378
178.45348730080266,825.3778199994631,7.418420687865409
178.45348730080266,825.7835172780623,8.801853849888232
178.45348730080266,826.1892145566621,9.805954312211735
178.45348730080266,826.5949118352617,10.845160205463076
178.45348730080266,827.0006091138613,11.708025423268332
178.45348730080266,827.4063063924608,12.527449835986827
178.45348730080266,827.8120036710603,13.240152465388194
178.45348730080266,828.2177009496597,13.89711794533149
178.45348730080266,828.6233982282594,14.57609235557827
178.45348730080266,829.0290955068591,15.179263226383824
178.45348730080266,829.4347927854585,15.781153045988844
178.45348730080266,829.8404900640579,16.316107831313094
178.45348730080266,830.2461873426574,16.82164401936474
178.45348730080266,830.6518846212572,17.30500116251896
178.45348730080266,831.0575818998568,17.83067542287325
178.45348730080266,831.463279178456,18.27994738959698
178.45348730080266,831.8689764570559,18.750897487123684
