X,Y,Z
106.76860749507244,918.3198256337358,11.226765757474197
106.76860749507244,918.9762006093827,11.02524833635619
106.76860749507244,919.6325755850288,10.92679487849781
106.76860749507244,920.2889505606756,10.687588969942235
106.76860749507244,920.9453255363219,10.57755065194085
106.76860749507244,921.6017005119687,10.33445315581999
106.76860749507244,922.2580754876152,10.116122698115442
106.76860749507244,922.9144504632618,9.806339487472929
106.76860749507244,923.5708254389081,9.561357977941261
106.76860749507244,924.2272004145547,9.124068360455242
106.76860749507244,924.8835753902014,8.68865415052039
106.76860749507244,925.5399503658479,8.172895792012548
106.76860749507244,926.1963253414943,7.66125420577722
106.76860749507244,926.852700317141,7.004024524432245
106.76860749507244,927.5090752927871,6.1844238154644735
106.76860749507244,928.165450268434,5.3159401531403185
106.76860749507244,928.8218252440804,4.194876466957357
107.03893383636566,835.6165787022727,2.776889824631793
107.03893383636566,836.2729536779192,3.4549452126148372
107.03893383636566,836.929328653566,4.300364201680518
107.03893383636566,837.5857036292125,5.128129181554134
107.03893383636566,838.242078604859,6.018771978279985
107.03893383636566,838.8984535805054,6.853838482251261
107.03893383636566,839.5548285561521,7.803952445199988
107.03893383636566,840.2112035317988,8.699896122797712
107.03893383636566,840.867578507445,9.603850791037384
107.03893383636566,841.5239534830919,10.427679768448046
107.03893383636566,842.1803284587381,11.273122162833925
107.03893383636566,842.8367034343847,12.173452571546672
107.03893383636566,843.4930784100311,12.99753158032359
107.03893383636566,844.1494533856779,13.762294536450453
107.03893383636566,844.8058283613243,14.58556877006986
107.03893383636566,845.4622033369707,15.243453556718991
107.03893383636566,846.1185783126176,15.9243894118146
107.03893383636566,846.774953288264,16.56679188295532
107.03893383636566,847.4313282639107,17.114378352701394
107.03893383636566,848.0877032395573,17.648624340868178
107.03893383636566,848.7440782152037,18.08770252169557
107.03893383636566,849.4004531908499,18.536817381363797
107.03893383636566,850.0568281664966,18.922875327164537
107.03893383636566,850.713203142143,19.274912200876777
107.03893383636566,851.3695781177896,19.638915031450047
107.03893383636566,852.0259530934361,19.953880675328957
107.03893383636566,852.6823280690825,20.218056219151784
107.03893383636566,853.3387030447291,20.457720434362226
107.03893383636566,853.9950780203757,20.68864020660307
107.03893383636566,854.6514529960226,20.891411011607875
107.03893383636566,855.3078279716686,21.052999399341196
107.03893383636566,855.9642029473155,21.23685682059941
107.03893383636566,856.6205779229618,21.335269886937848
107.03893383636566,857.2769528986086,21.498858768973943
107.03893383636566,857.9333278742549,21.614850066988346
107.03893383636566,859.2460778255482,21.56295086131608
107.03893383636566,859.9024528011943,21.552822039280144
107.03893383636566,860.558827776841,21.52810118817573
107.03893383636566,861.2152027524877,21.487402017865204
107.03893383636566,861.8715777281343,21.474045712770604
107.03893383636566,862.5279527037807,21.36221055451946
107.03893383636566,863.1843276794272,21.269408033067958
107.03893383636566,863.8407026550739,21.1722470422506
107.03893383636566,864.4970776307201,21.080213444032033
107.03893383636566,865.8098275820136,20.74520940242572
107.03893383636566,866.4662025576599,20.552762989333925
107.03893383636566,867.1225775333064,20.321071095833805
107.03893383636566,867.7789525089531,20.099609811213487
107.03893383636566,868.4353274845996,19.866752647005903
107.03893383636566,869.0917024602461,19.679449140312666
107.03893383636566,869.7480774358926,19.424384309017892
107.03893383636566,870.4044524115393,19.226519219931916
107.03893383636566,871.0608273871858,18.92184155303913
107.03893383636566,871.717202362832,18.631435991693373
107.03893383636566,872.3735773384786,18.35610959981503
107.03893383636566,873.0299523141251,18.054439236465196
107.03893383636566,874.342702265418,17.362939203787604
107.03893383636566,874.9990772410648,16.956204067272857
107.03893383636566,875.6554522167114,16.56390747065187
107.03893383636566,876.311827192358,16.1991965794136
107.03893383636566,876.9682021680045,15.851045736417522
107.03893383636566,877.6245771436511,15.409718973057862
107.03893383636566,878.2809521192977,15.078278202897154
107.03893383636566,878.937327094944,14.614549958384982
107.03893383636566,879.5937020705907,14.149500365973813
107.03893383636566,880.2500770462373,13.821916406611546
107.03893383636566,881.56282699753,12.885253187821526
107.03893383636566,882.2192019731768,12.40363575352909
107.03893383636566,882.8755769488231,11.946497815659393
107.03893383636566,883.5319519244698,11.496024262738239
107.03893383636566,884.1883269001162,10.966375172984119
107.03893383636566,884.8447018757627,10.534855289309725
107.03893383636566,885.5010768514092,10.020846227279455
107.03893383636566,886.1574518270558,9.588625009627428
107.03893383636566,886.8138268027025,9.116499677509617
107.03893383636566,887.4702017783491,8.662220089145999
107.03893383636566,888.1265767539954,8.291525793312733
107.03893383636566,888.7829517296418,7.891377675385274
107.03893383636566,889.4393267052885,7.6883754737524335
107.03893383636566,890.0957016809349,7.535052052251664
107.03893383636566,890.7520766565815,7.418672265913482
107.03893383636566,891.4084516322283,7.420845626724295
107.03893383636566,892.0648266078746,7.361492475105082
107.03893383636566,892.7212015835211,7.546846181995061
107.03893383636566,893.3775765591676,7.643462120068529
107.03893383636566,894.0339515348143,7.809763319792215
107.03893383636566,894.6903265104606,7.9459983526195135
107.03893383636566,895.3467014861071,8.105018923133851
107.03893383636566,896.0030764617538,8.274780100965561
107.03893383636566,896.6594514374003,8.418287489406312
107.03893383636566,897.3158264130468,8.610332147137076
107.03893383636566,897.9722013886935,8.75237210465785
107.03893383636566,898.6285763643401,8.927309989378063
107.03893383636566,899.2849513399865,9.06591905817625
107.03893383636566,899.9413263156329,9.255027062824745
107.03893383636566,900.5977012912796,9.469215589774958
107.03893383636566,901.2540762669262,9.592193133746271
107.03893383636566,901.9104512425727,9.784869579763997
107.03893383636566,902.5668262182193,9.987114449351589
107.03893383636566,903.2232011938655,10.091541329830575
107.03893383636566,903.8795761695125,10.233837933285663
107.03893383636566,904.5359511451588,10.35727903872614
107.03893383636566,905.1923261208053,10.48142068855969
107.03893383636566,905.8487010964516,10.660491383668557
107.03893383636566,906.5050760720984,10.748686724778365
107.03893383636566,907.1614510477448,10.916114531638978
107.03893383636566,907.8178260233915,11.006538953207018
107.03893383636566,908.474200999038,11.214220988824657
107.03893383636566,909.1305759746846,11.261799141718399
107.03893383636566,909.7869509503308,11.293499473582076
107.03893383636566,910.4433259259773,11.334947395164198
107.03893383636566,911.0997009016243,11.415803047300773
107.03893383636566,911.7560758772705,11.413093199451993
107.03893383636566,912.4124508529173,11.4627466250743
107.03893383636566,913.0688258285637,11.52688182502846
107.03893383636566,913.7252008042101,11.569555982867852
107.03893383636566,914.3815757798569,11.637425401588217
107.03893383636566,915.0379507555033,11.64035863485557
107.03893383636566,915.69432573115,11.6076861891835
107.03893383636566,916.3507007067965,11.55650843557049
107.03893383636566,917.0070756824431,11.390672353346849
107.03893383636566,918.3198256337358,11.220557243808463
107.03893383636566,918.9762006093827,11.062572871141063
107.03893383636566,919.6325755850288,10.935935442371674
107.03893383636566,920.2889505606756,10.695699261619946
107.03893383636566,920.9453255363219,10.607408278131732
107.03893383636566,921.6017005119687,10.341499957000368
107.03893383636566,922.2580754876152,10.1285781504823
107.03893383636566,924.2272004145547,9.11288858242141
107.03893383636566,924.8835753902014,8.666340061432324
107.03893383636566,925.5399503658479,8.170384354273507
107.03893383636566,926.1963253414943,7.652178507067756
107.03893383636566,926.852700317141,6.990006589750373
107.03893383636566,927.5090752927871,6.137571912211586
107.03893383636566,928.165450268434,5.258438378264646
107.03893383636566,928.8218252440804,4.128848180647229
107.30926017765886,835.6165787022727,2.820192236145408
107.30926017765886,836.2729536779192,3.4949330261447416
107.30926017765886,836.929328653566,4.356668673678828
107.30926017765886,837.5857036292125,5.180340795486802
107.30926017765886,838.242078604859,6.0514795495079685
107.30926017765886,838.8984535805054,6.918346254078331
107.30926017765886,839.5548285561521,7.8471110692163055
107.30926017765886,840.2112035317988,8.807558686676042
107.30926017765886,840.867578507445,9.679242559371612
107.30926017765886,841.5239534830919,10.446432736357156
107.30926017765886,842.1803284587381,11.321299452808933
107.30926017765886,842.8367034343847,12.200592915739783
107.30926017765886,843.4930784100311,13.053933938303087
107.30926017765886,844.1494533856779,13.834954542841261
107.30926017765886,844.8058283613243,14.579967922123789
107.30926017765886,845.4622033369707,15.227172699376503
107.30926017765886,846.1185783126176,15.901508500036003
107.30926017765886,846.774953288264,16.523326456867384
107.30926017765886,847.4313282639107,17.097956551256917
107.30926017765886,848.0877032395573,17.62225953957767
107.30926017765886,848.7440782152037,18.053663802381802
107.30926017765886,849.4004531908499,18.516529513985084
107.30926017765886,850.0568281664966,18.88742850856149
107.30926017765886,850.713203142143,19.228649796429952
107.30926017765886,851.3695781177896,19.60811333801289
107.30926017765886,852.0259530934361,19.90670099843582
107.30926017765886,852.6823280690825,20.17520677638318
107.30926017765886,853.3387030447291,20.38441934659735
107.30926017765886,853.9950780203757,20.636763707054183
107.30926017765886,854.6514529960226,20.809073726210183
107.30926017765886,855.3078279716686,21.01370097045154
107.30926017765886,855.9642029473155,21.187238279590314
107.30926017765886,856.6205779229618,21.297071324844755
107.30926017765886,857.2769528986086,21.43378847457562
107.30926017765886,857.9333278742549,21.584604692021085
107.30926017765886,858.5897028499016,21.537796769220392
107.30926017765886,859.2460778255482,21.48956409882351
107.30926017765886,859.9024528011943,21.469496040796063
107.30926017765886,860.558827776841,21.468303665219988
107.30926017765886,861.2152027524877,21.433848996543524
107.30926017765886,861.8715777281343,21.39793138603858
107.30926017765886,862.5279527037807,21.273361524159675
107.30926017765886,863.1843276794272,21.22579166918564
107.30926017765886,863.8407026550739,21.08996868683943
107.30926017765886,864.4970776307201,20.992187644302255
107.30926017765886,865.1534526063667,20.804094702204107
107.30926017765886,865.8098275820136,20.6860825931339
107.30926017765886,866.4662025576599,20.521178842096088
107.30926017765886,867.1225775333064,20.284743323231776
107.30926017765886,867.7789525089531,20.058723110456945
107.30926017765886,868.4353274845996,19.8567916817953
107.30926017765886,869.0917024602461,19.675015868509647
107.30926017765886,869.7480774358926,19.41746586422345
107.30926017765886,870.4044524115393,19.184101737925292
107.30926017765886,871.717202362832,18.569417383884318
107.30926017765886,872.3735773384786,18.295322242077717
107.30926017765886,873.0299523141251,17.970065749572253
107.30926017765886,873.6863272897717,17.671907258610652
107.30926017765886,874.342702265418,17.295643122015083
107.30926017765886,874.9990772410648,16.939196413006485
107.30926017765886,875.6554522167114,16.513550673014276
107.30926017765886,876.311827192358,16.144799466663173
107.30926017765886,876.9682021680045,15.781545215781579
107.30926017765886,877.6245771436511,15.372933884075763
107.30926017765886,878.2809521192977,15.007954227252181
107.30926017765886,878.937327094944,14.561488094772074
107.30926017765886,879.5937020705907,14.12185899768569
107.30926017765886,880.2500770462373,13.774510805547248
107.30926017765886,880.9064520218839,13.267364469163294
107.30926017765886,881.56282699753,12.82816993317985
107.30926017765886,882.2192019731768,12.337239521245538
107.30926017765886,882.8755769488231,11.904256503941978
107.30926017765886,883.5319519244698,11.462568716869079
107.30926017765886,884.1883269001162,10.9118920644482
107.30926017765886,884.8447018757627,10.466375716212424
107.30926017765886,885.5010768514092,9.985260547200427
107.30926017765886,886.1574518270558,9.539498183511713
107.30926017765886,886.8138268027025,9.05998285424518
107.30926017765886,887.4702017783491,8.624231099999447
107.30926017765886,888.1265767539954,8.254050498963569
107.30926017765886,888.7829517296418,7.872899054254233
107.30926017765886,889.4393267052885,7.664033326261733
107.30926017765886,890.0957016809349,7.521257827001924
107.30926017765886,890.7520766565815,7.417157279277412
107.30926017765886,891.4084516322283,7.413624368016363
107.30926017765886,892.0648266078746,7.421084969060829
107.30926017765886,892.7212015835211,7.5742763705877945
107.30926017765886,893.3775765591676,7.656462048150209
107.30926017765886,894.0339515348143,7.799351001176378
107.30926017765886,894.6903265104606,7.940784687194917
107.30926017765886,895.3467014861071,8.102247724543757
107.30926017765886,896.0030764617538,8.278685614525369
107.30926017765886,896.6594514374003,8.416452830391421
107.30926017765886,897.3158264130468,8.618188773759451
107.30926017765886,897.9722013886935,8.770102166801104
107.30926017765886,898.6285763643401,8.947704430774612
107.30926017765886,899.2849513399865,9.05459924290933
107.30926017765886,899.9413263156329,9.256025212830508
107.30926017765886,900.5977012912796,9.467415358322471
107.30926017765886,901.2540762669262,9.57582579078752
107.30926017765886,901.9104512425727,9.796832836933898
107.30926017765886,902.5668262182193,10.01702827635117
107.30926017765886,903.2232011938655,10.138424356805144
107.30926017765886,903.8795761695125,10.260918014568684
107.30926017765886,904.5359511451588,10.394528446894602
107.30926017765886,905.1923261208053,10.46781249191553
107.30926017765886,905.8487010964516,10.670562537896298
107.30926017765886,906.5050760720984,10.78813166843795
107.30926017765886,907.1614510477448,10.943480546025201
107.30926017765886,907.8178260233915,11.023440975349406
107.30926017765886,908.474200999038,11.272909392015464
107.30926017765886,909.1305759746846,11.306318007097367
107.30926017765886,909.7869509503308,11.348083696268883
107.30926017765886,910.4433259259773,11.389329228573956
107.30926017765886,911.0997009016243,11.440476630216972
107.30926017765886,911.7560758772705,11.407333889375959
107.30926017765886,912.4124508529173,11.478835494885683
107.30926017765886,913.0688258285637,11.51802035685773
107.30926017765886,913.7252008042101,11.59154698279164
107.30926017765886,914.3815757798569,11.646201388934378
107.30926017765886,915.0379507555033,11.660860025712983
107.30926017765886,915.69432573115,11.626367926144155
107.30926017765886,916.3507007067965,11.554441450546507
107.30926017765886,917.0070756824431,11.436915965715418
107.30926017765886,917.6634506580892,11.291111203602272
107.30926017765886,918.3198256337358,11.229622130935013
107.30926017765886,919.6325755850288,10.981750814600534
107.30926017765886,920.2889505606756,10.73167481714932
107.30926017765886,920.9453255363219,10.630861404034134
107.30926017765886,921.6017005119687,10.316576204885475
107.30926017765886,922.2580754876152,10.138569000616938
107.30926017765886,922.9144504632618,9.827732962769273
107.30926017765886,923.5708254389081,9.628347584680581
107.30926017765886,924.2272004145547,9.125067704227403
107.30926017765886,924.8835753902014,8.659759526729184
107.30926017765886,925.5399503658479,8.162492632356104
107.30926017765886,926.1963253414943,7.637823721615801
107.30926017765886,926.852700317141,6.924661049868697
107.30926017765886,927.5090752927871,6.099042805391735
107.30926017765886,928.165450268434,5.1613610400423084
107.30926017765886,928.8218252440804,4.057062263137733
107.57958651895204,835.6165787022727,2.853082600380225
107.57958651895204,836.2729536779192,3.547886846756163
107.57958651895204,836.929328653566,4.420111088096896
107.57958651895204,837.5857036292125,5.242110619159752
107.57958651895204,838.242078604859,6.17422670465137
107.57958651895204,838.8984535805054,6.978887859032763
107.57958651895204,839.5548285561521,7.92049288955938
107.57958651895204,840.2112035317988,8.871707819071622
107.57958651895204,840.867578507445,9.737494319986338
107.57958651895204,841.5239534830919,10.48612156315381
107.57958651895204,842.1803284587381,11.351355165460797
107.57958651895204,842.8367034343847,12.235884695461419
107.57958651895204,843.4930784100311,13.095930899507263
107.57958651895204,844.1494533856779,13.81881588637761
107.57958651895204,844.8058283613243,14.579169235710442
107.57958651895204,845.4622033369707,15.233901229403351
107.57958651895204,846.1185783126176,15.904727508356892
107.57958651895204,846.774953288264,16.515709713295564
107.57958651895204,847.4313282639107,17.091491585068148
107.57958651895204,848.0877032395573,17.615903537604126
107.57958651895204,848.7440782152037,18.055349552700406
107.57958651895204,849.4004531908499,18.4859273975821
107.57958651895204,850.0568281664966,18.902347858941685
107.57958651895204,850.713203142143,19.220659234587448
107.57958651895204,851.3695781177896,19.582586707768712
107.57958651895204,852.0259530934361,19.798770612363565
107.57958651895204,852.6823280690825,20.109891409717758
107.57958651895204,853.3387030447291,20.248698427376006
107.57958651895204,853.9950780203757,20.52199312772326
107.57958651895204,854.6514529960226,20.732019202722867
107.57958651895204,855.3078279716686,20.96396736386952
107.57958651895204,855.9642029473155,21.085231740662444
107.57958651895204,856.6205779229618,21.228096827936486
107.57958651895204,857.2769528986086,21.321681629397176
107.57958651895204,857.9333278742549,21.471311701817147
107.57958651895204,858.5897028499016,21.453015053704505
107.57958651895204,859.2460778255482,21.458594129390814
107.57958651895204,859.9024528011943,21.454341791569867
107.57958651895204,860.558827776841,21.41207760990234
107.57958651895204,861.2152027524877,21.379508198528356
107.57958651895204,861.8715777281343,21.299378881811986
107.57958651895204,862.5279527037807,21.211951100289806
107.57958651895204,863.1843276794272,21.16223012590582
107.57958651895204,863.8407026550739,21.017022817401863
107.57958651895204,864.4970776307201,20.941945701169825
107.57958651895204,865.1534526063667,20.758639571887894
107.57958651895204,865.8098275820136,20.621349160327267
107.57958651895204,866.4662025576599,20.462817667588542
107.57958651895204,867.1225775333064,20.23281474039283
107.57958651895204,867.7789525089531,20.0202369753812
107.57958651895204,868.4353274845996,19.838653997844766
107.57958651895204,869.0917024602461,19.629919357499052
107.57958651895204,869.7480774358926,19.38115595533876
107.57958651895204,870.4044524115393,19.1036503797799
107.57958651895204,871.0608273871858,18.800525666740807
107.57958651895204,871.717202362832,18.500883071354703
107.57958651895204,872.3735773384786,18.238044593208468
107.57958651895204,873.0299523141251,17.890965162179455
107.57958651895204,873.6863272897717,17.56973493800876
107.57958651895204,874.342702265418,17.184150244978486
107.57958651895204,874.9990772410648,16.866498219371902
107.57958651895204,876.311827192358,16.102266550292665
107.57958651895204,876.9682021680045,15.739682847352123
107.57958651895204,878.2809521192977,14.949408106111212
107.57958651895204,878.937327094944,14.480681158680516
107.57958651895204,879.5937020705907,14.084406109535982
107.57958651895204,880.2500770462373,13.713483428600258
107.57958651895204,880.9064520218839,13.220070195062247
107.57958651895204,881.56282699753,12.770301954759027
107.57958651895204,882.2192019731768,12.273267804977865
107.57958651895204,882.8755769488231,11.871911987459363
107.57958651895204,883.5319519244698,11.426705678191896
107.57958651895204,884.1883269001162,10.863826110062707
107.57958651895204,884.8447018757627,10.41046363111656
107.57958651895204,885.5010768514092,9.976482139847379
107.57958651895204,886.1574518270558,9.49831228043264
107.57958651895204,886.8138268027025,8.998358561124554
107.57958651895204,887.4702017783491,8.580828679880431
107.57958651895204,888.1265767539954,8.221306878526484
107.57958651895204,888.7829517296418,7.821327492503072
107.57958651895204,889.4393267052885,7.629214849849695
107.57958651895204,890.0957016809349,7.537236716036384
107.57958651895204,890.7520766565815,7.416667997935377
107.57958651895204,891.4084516322283,7.4305479063246755
107.57958651895204,892.0648266078746,7.488078291887365
107.57958651895204,892.7212015835211,7.6495711248731295
107.57958651895204,893.3775765591676,7.69031271657812
107.57958651895204,894.0339515348143,7.869931753686043
107.57958651895204,894.6903265104606,7.9651365223205035
107.57958651895204,895.3467014861071,8.116845635284824
107.57958651895204,896.0030764617538,8.328212302907005
107.57958651895204,896.6594514374003,8.445009750038166
107.57958651895204,897.3158264130468,8.620380945499692
107.57958651895204,897.9722013886935,8.818309350211385
107.57958651895204,899.2849513399865,9.086441394694987
107.57958651895204,899.9413263156329,9.269237742307773
107.57958651895204,900.5977012912796,9.472039454906035
107.57958651895204,901.2540762669262,9.570754764554836
107.57958651895204,901.9104512425727,9.802335206267859
107.57958651895204,902.5668262182193,10.021661411417016
107.57958651895204,903.2232011938655,10.186560823377514
107.57958651895204,903.8795761695125,10.27273015173413
107.57958651895204,904.5359511451588,10.439625014183008
107.57958651895204,905.1923261208053,10.523692121148947
107.57958651895204,905.8487010964516,10.699310690841292
107.57958651895204,906.5050760720984,10.829645445277283
107.57958651895204,907.1614510477448,10.955081415696917
107.57958651895204,907.8178260233915,11.06637057011488
107.57958651895204,908.474200999038,11.30061165648463
107.57958651895204,909.1305759746846,11.339856062598376
107.57958651895204,909.7869509503308,11.387844032560546
107.57958651895204,910.4433259259773,11.423102591385414
107.57958651895204,911.7560758772705,11.465527502218094
107.57958651895204,912.4124508529173,11.517350909447602
107.57958651895204,913.0688258285637,11.585458063740022
107.57958651895204,913.7252008042101,11.66368215005499
107.57958651895204,914.3815757798569,11.676033978984426
107.57958651895204,915.0379507555033,11.68288626716282
107.57958651895204,915.69432573115,11.643935763962356
107.57958651895204,916.3507007067965,11.539122187951493
107.57958651895204,917.0070756824431,11.465077567198193
107.57958651895204,917.6634506580892,11.285178525444069
107.57958651895204,918.3198256337358,11.241404174523561
107.57958651895204,918.9762006093827,11.14183812323729
107.57958651895204,919.6325755850288,10.995358127172944
107.57958651895204,920.2889505606756,10.75837363646163
107.57958651895204,920.9453255363219,10.643725759436194
107.57958651895204,921.6017005119687,10.361973468715751
107.57958651895204,922.2580754876152,10.172711306596861
107.57958651895204,923.5708254389081,9.580354369041803
107.57958651895204,924.2272004145547,9.126306355707698
107.57958651895204,924.8835753902014,8.655850250457357
107.57958651895204,925.5399503658479,8.137644714235757
107.57958651895204,926.1963253414943,7.628503000172501
107.57958651895204,926.852700317141,6.912457491652338
107.57958651895204,927.5090752927871,6.074924186311323
107.57958651895204,928.165450268434,5.111195770914299
107.57958651895204,928.8218252440804,4.009197855905272
107.84991286024524,835.6165787022727,2.8909752117234344
107.84991286024524,836.929328653566,4.462627405436907
107.84991286024524,837.5857036292125,5.298054091126863
107.84991286024524,838.242078604859,6.208534434580628
107.84991286024524,838.8984535805054,7.049068352436578
107.84991286024524,839.5548285561521,7.985192877731509
107.84991286024524,840.2112035317988,8.86571832435588
107.84991286024524,840.867578507445,9.762391640437146
107.84991286024524,841.5239534830919,10.54032831299647
107.84991286024524,842.1803284587381,11.400534098871882
107.84991286024524,842.8367034343847,12.264150912258296
107.84991286024524,843.4930784100311,13.10259465673023
107.84991286024524,844.1494533856779,13.837132175227422
107.84991286024524,844.8058283613243,14.551632983197702
107.84991286024524,845.4622033369707,15.209539273899555
107.84991286024524,846.1185783126176,15.917318169047395
107.84991286024524,846.774953288264,16.50605141558825
107.84991286024524,847.4313282639107,17.08082655164459
107.84991286024524,848.0877032395573,17.591502760502586
107.84991286024524,848.7440782152037,18.031716243115113
107.84991286024524,849.4004531908499,18.47743922547203
107.84991286024524,850.0568281664966,18.879333415911294
107.84991286024524,850.713203142143,19.221466480590394
107.84991286024524,851.3695781177896,19.530404684224756
107.84991286024524,852.0259530934361,19.80567698557813
107.84991286024524,852.6823280690825,20.053058242498572
107.84991286024524,853.3387030447291,20.2313027046935
107.84991286024524,853.9950780203757,20.480640382365443
107.84991286024524,854.6514529960226,20.697393054491513
107.84991286024524,855.3078279716686,20.890109473819965
107.84991286024524,855.9642029473155,21.01073808067308
107.84991286024524,856.6205779229618,21.176686275484467
107.84991286024524,857.2769528986086,21.226762413674017
107.84991286024524,857.9333278742549,21.343587806515846
107.84991286024524,858.5897028499016,21.374079364795865
107.84991286024524,859.2460778255482,21.41981465506122
107.84991286024524,859.9024528011943,21.408020339726274
107.84991286024524,860.558827776841,21.339587492100023
107.84991286024524,861.2152027524877,21.29074706115996
107.84991286024524,861.8715777281343,21.246270930726883
107.84991286024524,863.1843276794272,21.04007232299838
107.84991286024524,863.8407026550739,20.94680728983495
107.84991286024524,864.4970776307201,20.84047965682436
107.84991286024524,865.1534526063667,20.684739626049897
107.84991286024524,865.8098275820136,20.560235805402577
107.84991286024524,866.4662025576599,20.388814017713482
107.84991286024524,867.1225775333064,20.188063087851837
107.84991286024524,867.7789525089531,19.983691070920656
107.84991286024524,868.4353274845996,19.784883178425638
107.84991286024524,869.0917024602461,19.566917304579654
107.84991286024524,869.7480774358926,19.342529441284622
107.84991286024524,870.4044524115393,19.051365400806993
107.84991286024524,871.0608273871858,18.72239237543474
107.84991286024524,871.717202362832,18.452361895436006
107.84991286024524,872.3735773384786,18.168555989415857
107.84991286024524,873.0299523141251,17.84177308039003
107.84991286024524,873.6863272897717,17.520412715086835
107.84991286024524,874.342702265418,17.110911468762563
107.84991286024524,874.9990772410648,16.791412514570858
107.84991286024524,875.6554522167114,16.383446106169522
107.84991286024524,876.311827192358,16.070167221756208
107.84991286024524,876.9682021680045,15.684298554597678
107.84991286024524,878.2809521192977,14.890126387293675
107.84991286024524,878.937327094944,14.396945779899161
107.84991286024524,879.5937020705907,14.024917774577556
107.84991286024524,880.2500770462373,13.620782805537242
107.84991286024524,880.9064520218839,13.182956183339517
107.84991286024524,881.56282699753,12.72133331766646
107.84991286024524,882.2192019731768,12.228883258030343
107.84991286024524,882.8755769488231,11.841143707531517
107.84991286024524,883.5319519244698,11.357912943200379
107.84991286024524,884.1883269001162,10.830776317992285
107.84991286024524,884.8447018757627,10.387227302429574
107.84991286024524,885.5010768514092,9.918413455563988
107.84991286024524,886.1574518270558,9.43402387229912
107.84991286024524,886.8138268027025,8.956417287382012
107.84991286024524,887.4702017783491,8.525858177590212
107.84991286024524,888.1265767539954,8.179310591489186
107.84991286024524,888.7829517296418,7.7771752900349025
107.84991286024524,889.4393267052885,7.588554112032496
107.84991286024524,890.0957016809349,7.524951467298991
107.84991286024524,890.7520766565815,7.420625773109136
107.84991286024524,891.4084516322283,7.428968464563172
107.84991286024524,892.0648266078746,7.487482309804572
107.84991286024524,892.7212015835211,7.685542142634798
107.84991286024524,893.3775765591676,7.720548597092913
107.84991286024524,894.0339515348143,7.898033363208785
107.84991286024524,894.6903265104606,8.011073546932739
107.84991286024524,895.3467014861071,8.14301385666529
107.84991286024524,896.0030764617538,8.367947221140703
107.84991286024524,896.6594514374003,8.49003792564063
107.84991286024524,897.3158264130468,8.643590279802307
107.84991286024524,897.9722013886935,8.829165171951157
107.84991286024524,898.6285763643401,9.028149636362798
107.84991286024524,899.2849513399865,9.116966543688635
107.84991286024524,899.9413263156329,9.31929336387275
107.84991286024524,900.5977012912796,9.541219107996698
107.84991286024524,901.2540762669262,9.667837537918972
107.84991286024524,901.9104512425727,9.851541867681622
107.84991286024524,902.5668262182193,10.053648668173436
107.84991286024524,903.2232011938655,10.251231340944488
107.84991286024524,903.8795761695125,10.259216683340076
107.84991286024524,904.5359511451588,10.472517755853485
107.84991286024524,905.1923261208053,10.540840924402147
107.84991286024524,905.8487010964516,10.72842569042356
107.84991286024524,906.5050760720984,10.878290586715226
107.84991286024524,907.1614510477448,10.981899406168312
107.84991286024524,907.8178260233915,11.119689268360707
107.84991286024524,908.474200999038,11.298008149762072
107.84991286024524,909.1305759746846,11.348247339534653
107.84991286024524,909.7869509503308,11.41909998318595
107.84991286024524,910.4433259259773,11.449052676015931
107.84991286024524,911.0997009016243,11.46727188399419
107.84991286024524,911.7560758772705,11.520894626319254
107.84991286024524,912.4124508529173,11.570062593969983
107.84991286024524,913.0688258285637,11.601881229478305
107.84991286024524,913.7252008042101,11.67660967642914
107.84991286024524,914.3815757798569,11.675275636149108
107.84991286024524,915.0379507555033,11.674806958065492
107.84991286024524,915.69432573115,11.649777887823689
107.84991286024524,916.3507007067965,11.545697445005564
107.84991286024524,917.0070756824431,11.50165543939339
107.84991286024524,918.3198256337358,11.258180312644924
107.84991286024524,918.9762006093827,11.166145579051094
107.84991286024524,919.6325755850288,10.98990280847877
107.84991286024524,920.2889505606756,10.744480727429842
107.84991286024524,920.9453255363219,10.618784568882631
107.84991286024524,921.6017005119687,10.371982593617336
107.84991286024524,922.2580754876152,10.164451394494058
107.84991286024524,922.9144504632618,9.853191008993702
107.84991286024524,923.5708254389081,9.570468387301586
107.84991286024524,924.2272004145547,9.121500402733949
107.84991286024524,925.5399503658479,8.11631603394712
107.84991286024524,926.1963253414943,7.60810680640318
107.84991286024524,926.852700317141,6.892468463170591
107.84991286024524,927.5090752927871,6.047734399518487
107.84991286024524,928.165450268434,5.038789031455479
107.84991286024524,928.8218252440804,3.9309455470564805
108.12023920153847,835.6165787022727,2.9576222846313365
108.12023920153847,836.2729536779192,3.697465610122892
108.12023920153847,836.929328653566,4.51504917295468
108.12023920153847,837.5857036292125,5.354646932693939
108.12023920153847,838.242078604859,6.239868121949006
108.12023920153847,838.8984535805054,7.094203749452059
108.12023920153847,839.5548285561521,8.0271557554137
108.12023920153847,840.2112035317988,8.885208031763632
108.12023920153847,840.867578507445,9.793802037870682
108.12023920153847,841.5239534830919,10.567464535379852
108.12023920153847,842.1803284587381,11.425584705434296
108.12023920153847,842.8367034343847,12.27040950774065
108.12023920153847,843.4930784100311,13.089508789196143
108.12023920153847,844.1494533856779,13.82720488032003
108.12023920153847,844.8058283613243,14.528123986866001
108.12023920153847,846.1185783126176,15.929758894406872
108.12023920153847,846.774953288264,16.516233131454506
108.12023920153847,847.4313282639107,17.05282649989796
108.12023920153847,848.0877032395573,17.56569907717907
108.12023920153847,848.7440782152037,17.986602627823252
108.12023920153847,849.4004531908499,18.423958509602347
108.12023920153847,850.0568281664966,18.830557876987136
108.12023920153847,851.3695781177896,19.494235895379525
108.12023920153847,852.0259530934361,19.788401089661082
108.12023920153847,852.6823280690825,20.06033966816943
108.12023920153847,853.3387030447291,20.240810475725304
108.12023920153847,853.9950780203757,20.466443840505914
108.12023920153847,854.6514529960226,20.654270735828863
108.12023920153847,855.3078279716686,20.81192294039489
108.12023920153847,855.9642029473155,20.966558223081528
108.12023920153847,856.6205779229618,21.10739462477162
108.12023920153847,857.2769528986086,21.20638138186303
108.12023920153847,857.9333278742549,21.26713178116429
108.12023920153847,858.5897028499016,21.271791386894375
108.12023920153847,859.2460778255482,21.345196216056745
108.12023920153847,859.9024528011943,21.371728434916765
108.12023920153847,860.558827776841,21.24614565046712
108.12023920153847,861.2152027524877,21.243126437982323
108.12023920153847,861.8715777281343,21.211177996270315
108.12023920153847,862.5279527037807,21.0823737299199
108.12023920153847,863.1843276794272,20.976928306030096
108.12023920153847,863.8407026550739,20.85346190100568
108.12023920153847,864.4970776307201,20.765624186389566
108.12023920153847,865.8098275820136,20.484663923806767
108.12023920153847,866.4662025576599,20.313890115118735
108.12023920153847,867.1225775333064,20.103984792609367
108.12023920153847,867.7789525089531,19.936036754443855
108.12023920153847,868.4353274845996,19.688909921692872
108.12023920153847,869.0917024602461,19.49110230946209
108.12023920153847,869.7480774358926,19.26630318709869
108.12023920153847,870.4044524115393,18.98589835547598
108.12023920153847,871.0608273871858,18.633898669151254
108.12023920153847,871.717202362832,18.387588231341528
108.12023920153847,872.3735773384786,18.109846136029994
108.12023920153847,873.0299523141251,17.78259223582055
108.12023920153847,873.6863272897717,17.480502314862324
108.12023920153847,874.9990772410648,16.702548564761212
108.12023920153847,875.6554522167114,16.308345605916205
108.12023920153847,876.311827192358,16.009199696349913
108.12023920153847,876.9682021680045,15.586450259809085
108.12023920153847,878.2809521192977,14.8339095537636
108.12023920153847,878.937327094944,14.350514400197758
108.12023920153847,879.5937020705907,13.99136543805709
108.12023920153847,880.2500770462373,13.604792126067894
108.12023920153847,880.9064520218839,13.120883542968054
108.12023920153847,881.56282699753,12.684905497049186
108.12023920153847,882.2192019731768,12.190103722076703
108.12023920153847,882.8755769488231,11.779467274113307
108.12023920153847,883.5319519244698,11.283503976399427
108.12023920153847,884.1883269001162,10.796766042489404
108.12023920153847,884.8447018757627,10.33644213437657
108.12023920153847,885.5010768514092,9.863353528224827
108.12023920153847,886.1574518270558,9.38539308791646
108.12023920153847,886.8138268027025,8.919539367819748
108.12023920153847,887.4702017783491,8.501046762105386
108.12023920153847,888.1265767539954,8.129611049278946
108.12023920153847,888.7829517296418,7.769501953263565
108.12023920153847,889.4393267052885,7.555298822866506
108.12023920153847,890.0957016809349,7.486370521140873
108.12023920153847,890.7520766565815,7.405029520913785
108.12023920153847,891.4084516322283,7.441506302716009
108.12023920153847,892.0648266078746,7.494352029578752
108.12023920153847,892.7212015835211,7.7161341151027
108.12023920153847,893.3775765591676,7.753209885473427
108.12023920153847,894.0339515348143,7.8948059737369185
108.12023920153847,894.6903265104606,8.020521752204145
108.12023920153847,895.3467014861071,8.148912710544863
108.12023920153847,896.0030764617538,8.374953876426316
108.12023920153847,896.6594514374003,8.533260794218982
108.12023920153847,897.3158264130468,8.662332446636514
108.12023920153847,897.9722013886935,8.835030074146902
108.12023920153847,898.6285763643401,9.03779498228103
108.12023920153847,899.2849513399865,9.151685560862681
108.12023920153847,899.9413263156329,9.326878866169599
108.12023920153847,900.5977012912796,9.56768920275497
108.12023920153847,901.2540762669262,9.711785910110786
108.12023920153847,901.9104512425727,9.860343667194382
108.12023920153847,902.5668262182193,10.052650878247976
108.12023920153847,903.2232011938655,10.301049937399357
108.12023920153847,903.8795761695125,10.301225308470181
108.12023920153847,904.5359511451588,10.509602905747615
108.12023920153847,905.1923261208053,10.582563651270881
108.12023920153847,905.8487010964516,10.734371124594809
108.12023920153847,906.5050760720984,10.938185212077292
108.12023920153847,907.1614510477448,10.978393108621988
108.12023920153847,907.8178260233915,11.159867834274648
108.12023920153847,909.1305759746846,11.34758209796479
108.12023920153847,909.7869509503308,11.423811739524618
108.12023920153847,910.4433259259773,11.471374415659403
108.12023920153847,911.0997009016243,11.484254529046591
108.12023920153847,911.7560758772705,11.555868787853912
108.12023920153847,912.4124508529173,11.605692136302372
108.12023920153847,913.0688258285637,11.608872977176746
108.12023920153847,913.7252008042101,11.67276171256024
108.12023920153847,914.3815757798569,11.64472650368216
108.12023920153847,915.0379507555033,11.657064553896367
108.12023920153847,915.69432573115,11.6495381822655
108.12023920153847,916.3507007067965,11.566820369217385
108.12023920153847,917.0070756824431,11.511961647773836
108.12023920153847,917.6634506580892,11.410427196922956
108.12023920153847,918.3198256337358,11.242337545650495
108.12023920153847,918.9762006093827,11.19689864330849
108.12023920153847,919.6325755850288,11.015524238051151
108.12023920153847,920.2889505606756,10.774557705509599
108.12023920153847,920.9453255363219,10.602356565051018
108.12023920153847,921.6017005119687,10.347892307629257
108.12023920153847,922.2580754876152,10.138573328978705
108.12023920153847,922.9144504632618,9.854803604236519
108.12023920153847,923.5708254389081,9.574132582585252
108.12023920153847,924.2272004145547,9.116614404743059
108.12023920153847,924.8835753902014,8.632703013612428
108.12023920153847,925.5399503658479,8.10214487876905
108.12023920153847,926.1963253414943,7.562700275473072
108.12023920153847,926.852700317141,6.84319039155908
108.12023920153847,927.5090752927871,5.995652895800547
108.12023920153847,928.165450268434,4.926061526921066
108.12023920153847,928.8218252440804,3.859117193892603
108.39056554283167,835.6165787022727,2.984328892901148
108.39056554283167,836.2729536779192,3.7662624389567445
108.39056554283167,836.929328653566,4.551747683878827
108.39056554283167,837.5857036292125,5.399579796258923
108.39056554283167,838.242078604859,6.281046704460163
108.39056554283167,838.8984535805054,7.146741476695472
108.39056554283167,839.5548285561521,8.062622659653304
108.39056554283167,840.2112035317988,8.906004091465208
108.39056554283167,840.867578507445,9.830971461495258
108.39056554283167,841.5239534830919,10.642069753324272
108.39056554283167,842.1803284587381,11.495785888290131
108.39056554283167,842.8367034343847,12.314798135962771
108.39056554283167,843.4930784100311,13.120571141323778
108.39056554283167,844.1494533856779,13.839804662216771
108.39056554283167,844.8058283613243,14.579264802351075
108.39056554283167,846.1185783126176,15.921515274721687
108.39056554283167,846.774953288264,16.523830955362758
108.39056554283167,847.4313282639107,17.04040899371315
108.39056554283167,848.0877032395573,17.555979953222085
108.39056554283167,848.7440782152037,17.932370209676538
108.39056554283167,849.4004531908499,18.394601455543537
108.39056554283167,850.0568281664966,18.824406371919
108.39056554283167,851.3695781177896,19.492084612527695
108.39056554283167,852.6823280690825,20.044690625781207
108.39056554283167,853.9950780203757,20.45618246620325
108.39056554283167,854.6514529960226,20.5897730821422
108.39056554283167,855.3078279716686,20.749925428703957
108.39056554283167,855.9642029473155,20.936151677753404
108.39056554283167,856.6205779229618,21.044167763880896
108.39056554283167,857.2769528986086,21.130948146809434
108.39056554283167,857.9333278742549,21.225320744768133
108.39056554283167,858.5897028499016,21.217388686971905
108.39056554283167,859.2460778255482,21.284115495673422
108.39056554283167,859.9024528011943,21.339238410887337
108.39056554283167,860.558827776841,21.224622738319233
108.39056554283167,861.2152027524877,21.203478456734572
108.39056554283167,861.8715777281343,21.148751501049894
108.39056554283167,862.5279527037807,21.001111417445653
108.39056554283167,863.1843276794272,20.911255523109922
108.39056554283167,863.8407026550739,20.78167294832732
108.39056554283167,864.4970776307201,20.708814454050128
108.39056554283167,865.1534526063667,20.516719244673045
108.39056554283167,865.8098275820136,20.36879367013621
108.39056554283167,866.4662025576599,20.21958973987966
108.39056554283167,867.1225775333064,20.017427741602155
108.39056554283167,867.7789525089531,19.818774387367306
108.39056554283167,868.4353274845996,19.61619144656577
108.39056554283167,869.0917024602461,19.41450097739364
108.39056554283167,869.7480774358926,19.15781609365592
108.39056554283167,870.4044524115393,18.900370377916072
108.39056554283167,871.0608273871858,18.60637596232007
108.39056554283167,871.717202362832,18.339832326368903
108.39056554283167,872.3735773384786,18.039704925453254
108.39056554283167,873.0299523141251,17.709462921047415
108.39056554283167,873.6863272897717,17.393343171614365
108.39056554283167,874.342702265418,17.000100672335282
108.39056554283167,874.9990772410648,16.620919616271603
108.39056554283167,875.6554522167114,16.24411329104323
108.39056554283167,876.311827192358,15.951894254118885
108.39056554283167,876.9682021680045,15.476433395930366
108.39056554283167,877.6245771436511,15.154355925689428
108.39056554283167,878.2809521192977,14.750219904310473
108.39056554283167,878.937327094944,14.303326855397986
108.39056554283167,879.5937020705907,13.950014010059363
108.39056554283167,880.2500770462373,13.635167235513967
108.39056554283167,880.9064520218839,13.026845199310742
108.39056554283167,882.2192019731768,12.123393844614036
108.39056554283167,882.8755769488231,11.697061596108535
108.39056554283167,883.5319519244698,11.213062530691081
108.39056554283167,884.1883269001162,10.75122789891861
108.39056554283167,884.8447018757627,10.288165985785644
108.39056554283167,885.5010768514092,9.826056053898233
108.39056554283167,886.1574518270558,9.338700903142628
108.39056554283167,886.8138268027025,8.856821621227175
108.39056554283167,887.4702017783491,8.4461479961096
108.39056554283167,888.1265767539954,8.08055398159482
108.39056554283167,888.7829517296418,7.755475604935698
108.39056554283167,889.4393267052885,7.532651053903394
108.39056554283167,890.0957016809349,7.471363809391027
108.39056554283167,890.7520766565815,7.4061627160394865
108.39056554283167,891.4084516322283,7.451687217838086
108.39056554283167,892.0648266078746,7.499329149465227
108.39056554283167,892.7212015835211,7.7116708317109355
108.39056554283167,893.3775765591676,7.753436066550678
108.39056554283167,894.0339515348143,7.8970830892826696
108.39056554283167,894.6903265104606,8.044038306439301
108.39056554283167,895.3467014861071,8.1549728845449
108.39056554283167,896.0030764617538,8.353954416028946
108.39056554283167,896.6594514374003,8.552783446349881
108.39056554283167,897.3158264130468,8.675868745447985
108.39056554283167,897.9722013886935,8.87133287178217
108.39056554283167,898.6285763643401,9.051184228440302
108.39056554283167,899.2849513399865,9.17066382303531
108.39056554283167,899.9413263156329,9.315666498928222
108.39056554283167,900.5977012912796,9.562925698390012
108.39056554283167,901.2540762669262,9.734746883074015
108.39056554283167,901.9104512425727,9.888669870918507
108.39056554283167,902.5668262182193,10.04137082786099
108.39056554283167,903.2232011938655,10.313305691326985
108.39056554283167,903.8795761695125,10.323904546848834
108.39056554283167,904.5359511451588,10.531074142201643
108.39056554283167,905.1923261208053,10.650879355860402
108.39056554283167,905.8487010964516,10.763595302662184
108.39056554283167,906.5050760720984,10.951593247889955
108.39056554283167,907.1614510477448,10.95348612353761
108.39056554283167,907.8178260233915,11.142035053555109
108.39056554283167,908.474200999038,11.273824221875213
108.39056554283167,909.1305759746846,11.345908121546573
108.39056554283167,909.7869509503308,11.41069019320987
108.39056554283167,910.4433259259773,11.470098603048752
108.39056554283167,911.0997009016243,11.515300326100805
108.39056554283167,911.7560758772705,11.559609025282528
108.39056554283167,912.4124508529173,11.614554585332554
108.39056554283167,913.0688258285637,11.589788044571485
108.39056554283167,913.7252008042101,11.661697593458644
108.39056554283167,914.3815757798569,11.653916002421905
108.39056554283167,915.0379507555033,11.66183774932012
108.39056554283167,915.69432573115,11.650455354364206
108.39056554283167,916.3507007067965,11.589853782682201
108.39056554283167,917.0070756824431,11.493768881230812
108.39056554283167,917.6634506580892,11.423022581883032
108.39056554283167,918.3198256337358,11.225672833301404
108.39056554283167,918.9762006093827,11.208607401714952
108.39056554283167,919.6325755850288,11.025566925061058
108.39056554283167,920.2889505606756,10.799976810603567
108.39056554283167,920.9453255363219,10.606820224244437
108.39056554283167,921.6017005119687,10.366919717596414
108.39056554283167,922.2580754876152,10.129676037546261
108.39056554283167,922.9144504632618,9.833757548422028
108.39056554283167,923.5708254389081,9.567634301905343
108.39056554283167,924.2272004145547,9.11536583241333
108.39056554283167,924.8835753902014,8.613131472518091
108.39056554283167,925.5399503658479,8.084065444199364
108.39056554283167,926.1963253414943,7.5452860556103465
108.39056554283167,926.852700317141,6.801578233269212
108.39056554283167,927.5090752927871,5.948782380477729
108.39056554283167,928.165450268434,4.838433593990371
108.66089188412485,835.6165787022727,3.024328354517384
108.66089188412485,836.2729536779192,3.818497247292153
108.66089188412485,836.929328653566,4.594906365826689
108.66089188412485,837.5857036292125,5.466446278963145
108.66089188412485,838.242078604859,6.313550641036242
108.66089188412485,838.8984535805054,7.185732822999087
108.66089188412485,839.5548285561521,8.089630201853712
108.66089188412485,840.2112035317988,8.92582930986069
108.66089188412485,840.867578507445,9.821850668880632
108.66089188412485,842.1803284587381,11.536221711206393
108.66089188412485,842.8367034343847,12.364631378663624
108.66089188412485,843.4930784100311,13.165903921080123
108.66089188412485,844.1494533856779,13.881131901623457
108.66089188412485,844.8058283613243,14.56552049794563
108.66089188412485,845.4622033369707,15.225879113391873
108.66089188412485,846.1185783126176,15.889683886949294
108.66089188412485,846.774953288264,16.490472701093434
108.66089188412485,847.4313282639107,16.988317500508106
108.66089188412485,848.0877032395573,17.50493578781057
108.66089188412485,848.7440782152037,17.933458681317255
108.66089188412485,849.4004531908499,18.393437448929237
108.66089188412485,850.0568281664966,18.768127583312825
108.66089188412485,850.713203142143,19.12306766860594
